# .PCD v0.7 - Point Cloud Data file format
VERSION 0.7
FIELDS x y z rgba time_sec time_usec intensity
SIZE 4 4 4 4 4 4 4
TYPE F F F U U U U
COUNT 1 1 1 1 1 1 1
WIDTH 776
HEIGHT 1
VIEWPOINT 0 0 0 1 0 0 0
POINTS 776
DATA ascii
-0.639 -0.287 6.1469998 4294907648 1564024270 156719 201
-0.62599999 -0.287 6.1420002 4294907648 1564024270 173736 201
-0.61500001 -0.28799999 6.152 4294907648 1564024270 190753 201
-0.60699999 -0.28799999 6.1479998 4294907648 1564024270 156719 201
-0.59899998 -0.287 6.1420002 4294907904 1564024270 207583 201
-0.59100002 -0.28799999 6.1399999 4294907904 1564024270 140076 202
-0.57700002 -0.289 6.158 4294907392 1564024270 123807 203
-0.55699998 -0.28799999 6.1409998 4294907904 1564024270 207583 201
-0.53899997 -0.289 6.1430001 4294907904 1564024270 190753 201
-0.51999998 -0.289 6.1420002 4294907904 1564024270 173736 201
-0.498 -0.289 6.1339998 4294908160 1564024270 156719 201
-0.47600001 -0.289 6.1389999 4294908160 1564024270 140076 200
-0.454 -0.289 6.1350002 4294908160 1564024270 123807 200
-0.43900001 -0.289 6.132 4294908160 1564024270 156719 109
-0.42899999 -0.289 6.1290002 4294908416 1564024270 207583 200
-0.414 -0.28999999 6.1360002 4294908160 1564024270 173736 117
-0.38999999 -0.28999999 6.1329999 4294908416 1564024270 190753 124
-0.36500001 -0.28999999 6.132 4294908416 1564024270 207583 125
-0.338 -0.28999999 6.132 4294908416 1564024270 123807 141
-0.31099999 -0.289 6.1240001 4294908672 1564024270 140076 154
-0.28400001 -0.289 6.1230001 4294908672 1564024270 156719 157
-0.273 -0.289 6.1160002 4294908928 1564024270 207583 163
-0.255 -0.289 6.1220002 4294908672 1564024270 173736 162
-0.245 -0.289 6.1220002 4294908672 1564024270 190753 156
-0.21699999 -0.289 6.1139998 4294908928 1564024270 173736 165
-0.18700001 -0.28799999 6.1170001 4294908928 1564024270 156719 190
-0.15800001 -0.28799999 6.1110001 4294908928 1564024270 140076 136
-0.12899999 -0.28799999 6.1160002 4294908928 1564024270 123807 128
-0.097999997 -0.287 6.1079998 4294909184 1564024270 207583 200
-0.082999997 -0.28600001 6.099 4294909184 1564024270 156719 200
-0.052000001 -0.28600001 6.1020002 4294909184 1564024270 173736 202
-0.022 -0.285 6.0970001 4294909440 1564024270 190753 202
0 -0.28400001 6.0929999 4294909440 1564024270 140076 202
0.029999999 -0.28299999 6.079 4294909696 1564024270 123807 203
0.066 -0.278 6.0100002 4294911232 1564024270 140076 203
0.097999997 -0.27900001 6.0370002 4294910720 1564024270 156719 204
0.12899999 -0.27599999 6 4294911488 1564024270 173736 203
0.16599999 -0.28 6.1129999 4294908928 1564024270 156719 72
0.192 -0.278 6.0780001 4294909696 1564024270 207583 79
0.22400001 -0.27500001 6.0570002 4294910208 1564024270 123620 102
0.233 -0.27500001 6.0630002 4294909952 1564024270 123620 100
0.266 -0.27399999 6.0619998 4294909952 1564024270 207583 202
0.28099999 -0.273 6.0549998 4294910208 1564024270 156532 201
0.315 -0.27200001 6.0560002 4294909952 1564024270 173549 201
0.333 -0.27000001 6.0500002 4294910208 1564024270 173549 201
0.37099999 -0.26800001 6.0409999 4294910208 1564024270 207396 155
0.28 -0.18700001 4.3150001 4294946560 1564024270 139889 121
0.29300001 -0.18099999 4.2020001 4294948864 1564024270 123620 117
0.31 -0.17900001 4.177 4294949376 1564024270 156532 131
0.315 -0.17900001 4.177 4294949376 1564024270 207396 138
0.33399999 -0.177 4.165 4294949632 1564024270 190566 134
0.34799999 -0.177 4.1789999 4294949376 1564024270 190566 123
0.377 -0.175 4.177 4294949376 1564024270 139889 100
0.40400001 -0.17399999 4.1950002 4294948864 1564024270 123433 123
0.419 -0.17299999 4.1880002 4294949120 1564024270 207209 102
0.43599999 -0.17200001 4.191 4294948864 1564024270 156345 136
0.46000001 -0.17200001 4.23 4294948096 1564024270 173362 194
0.69199997 -0.25099999 6.085 4294908928 1564024270 190379 84
0.708 -0.24699999 6.0279999 4294909952 1564024270 207209 206
0.72000003 -0.24600001 6.0339999 4294909952 1564024270 139702 206
0.74199998 -0.245 6.0300002 4294909952 1564024270 123433 207
0.74699998 -0.243 6.0079999 4294910464 1564024270 139702 207
0.78799999 -0.241 6.0359998 4294909696 1564024270 190192 206
0.80599999 -0.23899999 6.0170002 4294909952 1564024270 190192 206
0.824 -0.237 6.0089998 4294910208 1564024270 156158 207
0.84200001 -0.236 6.0139999 4294909952 1564024270 139515 205
0.85100001 -0.234 5.9980001 4294910208 1564024270 139515 205
0.866 -0.233 6.0009999 4294910208 1564024270 156158 205
0.884 -0.23199999 5.9980001 4294910208 1564024270 190192 205
0.88999999 -0.23 5.967 4294910976 1564024270 173175 204
0.917 -0.235 6.1059999 4294907904 1564024270 190192 68
0.92500001 -0.233 6.0960002 4294908160 1564024270 207022 69
0.64499998 -0.161 4.2849998 4294946560 1564024270 123246 203
0.65200001 -0.16 4.2859998 4294946304 1564024270 190192 201
0.94700003 -0.23100001 6.0929999 4294908160 1564024270 173175 73
0.949 -0.23100001 6.092 4294908160 1564024270 156158 71
-0.69199997 -0.29300001 6.2750001 4294904832 1564024270 173736 42
-0.65799999 -0.289 6.171 4294907136 1564024270 123807 202
-0.64499998 -0.28799999 6.152 4294907392 1564024270 207583 202
-0.634 -0.28799999 6.1459999 4294907648 1564024270 190753 201
-0.62199998 -0.289 6.152 4294907648 1564024270 173736 201
-0.61299998 -0.289 6.1479998 4294907648 1564024270 207583 201
-0.597 -0.289 6.1399999 4294907904 1564024270 123807 201
-0.58200002 -0.28999999 6.151 4294907648 1564024270 140076 201
-0.565 -0.28999999 6.1479998 4294907648 1564024270 156719 201
-0.546 -0.28999999 6.1469998 4294907904 1564024270 173736 201
-0.52700001 -0.28999999 6.1490002 4294907904 1564024270 190753 201
-0.50599998 -0.28999999 6.1430001 4294907904 1564024270 207583 201
-0.48500001 -0.29100001 6.1420002 4294907904 1564024270 123807 200
-0.46200001 -0.29100001 6.1350002 4294908160 1564024270 140076 103
-0.458 -0.29100001 6.145 4294907904 1564024270 123807 201
-0.433 -0.29100001 6.1339998 4294908160 1564024270 207770 193
-0.40799999 -0.29100001 6.125 4294908416 1564024270 190753 196
-0.384 -0.29100001 6.1290002 4294908416 1564024270 173923 185
-0.35800001 -0.29100001 6.1240001 4294908672 1564024270 156719 183
-0.33199999 -0.29100001 6.125 4294908672 1564024270 140076 186
-0.30599999 -0.29100001 6.1259999 4294908672 1564024270 123807 183
-0.27700001 -0.29100001 6.1230001 4294908672 1564024270 207770 158
-0.249 -0.29100001 6.1290002 4294908672 1564024270 190753 161
-0.227 -0.28999999 6.1129999 4294908928 1564024270 190753 174
-0.221 -0.28999999 6.1209998 4294908672 1564024270 173923 172
-0.199 -0.28999999 6.1279998 4294908672 1564024270 207583 188
-0.168 -0.289 6.1100001 4294908928 1564024270 123807 191
-0.139 -0.289 6.1110001 4294908928 1564024270 140076 196
-0.109 -0.28799999 6.1059999 4294909184 1564024270 156719 200
-0.068000004 -0.28799999 6.1079998 4294909184 1564024270 190753 200
-0.037999999 -0.287 6.1079998 4294909184 1564024270 173736 105
-0.0049999999 -0.28600001 6.0949998 4294909440 1564024270 156719 202
0.0080000004 -0.285 6.0949998 4294909440 1564024270 207583 202
0.041000001 -0.28299999 6.0580001 4294910208 1564024270 123807 203
0.063000001 -0.28 6.0139999 4294910976 1564024270 207583 203
0.094999999 -0.28 6.0430002 4294910464 1564024270 190753 204
0.125 -0.278 6.0180001 4294910976 1564024270 173736 203
0.13 -0.27700001 5.9889998 4294911488 1564024270 173736 203
0.162 -0.27599999 5.994 4294911488 1564024270 190753 202
0.197 -0.28 6.1090002 4294908928 1564024270 140076 79
0.227 -0.27700001 6.0700002 4294909952 1564024270 123620 97
0.255 -0.27500001 6.0560002 4294910208 1564024270 140076 202
0.29699999 -0.273 6.0500002 4294910208 1564024270 190566 201
0.345 -0.271 6.059 4294909952 1564024270 190566 200
0.366 -0.27000001 6.0580001 4294909952 1564024270 156532 195
0.285 -0.193 4.421 4294944256 1564024270 139889 129
0.278 -0.185 4.2490001 4294947840 1564024270 123620 114
0.296 -0.182 4.211 4294948608 1564024270 139889 125
0.31200001 -0.18000001 4.1799998 4294949376 1564024270 207396 137
0.331 -0.178 4.1729999 4294949376 1564024270 173549 129
0.354 -0.177 4.1700001 4294949376 1564024270 173549 114
0.36700001 -0.176 4.1700001 4294949376 1564024270 207396 115
0.39700001 -0.175 4.1939998 4294948864 1564024270 123433 109
0.421 -0.17399999 4.1900001 4294948864 1564024270 139702 153
0.43700001 -0.17299999 4.1939998 4294948864 1564024270 190379 137
0.46000001 -0.17399999 4.2410002 4294947840 1564024270 173362 202
0.68599999 -0.24699999 5.9749999 4294911232 1564024270 156345 206
0.73199999 -0.24600001 6.0229998 4294910208 1564024270 123433 207
0.76300001 -0.244 6.0240002 4294909952 1564024270 207209 207
0.76999998 -0.243 6.0209999 4294909952 1564024270 156345 207
0.79100001 -0.242 6.0240002 4294909952 1564024270 173362 205
0.80500001 -0.241 6.0289998 4294909696 1564024270 173362 206
0.82200003 -0.23800001 6.0040002 4294910208 1564024270 207209 206
0.838 -0.236 5.9920001 4294910464 1564024270 123246 207
0.85500002 -0.235 6.0040002 4294910208 1564024270 123246 206
0.86900002 -0.234 5.9980001 4294910208 1564024270 207022 205
0.87800002 -0.233 5.9920001 4294910464 1564024270 173175 204
0.88499999 -0.23100001 5.9619999 4294910976 1564024270 190192 203
0.92000002 -0.235 6.099 4294908160 1564024270 156158 72
0.92900002 -0.234 6.0949998 4294908160 1564024270 139515 73
0.64999998 -0.162 4.302 4294946048 1564024270 123246 203
0.65100002 -0.162 4.2969999 4294946304 1564024270 139515 203
0.94499999 -0.233 6.0999999 4294907904 1564024270 156158 68
0.94700003 -0.23199999 6.0900002 4294908160 1564024270 173175 67
0.92299998 -0.22499999 5.9229999 4294911744 1564024270 190192 203
-0.704 -0.29699999 6.3249998 4294903808 1564024270 173923 17
-0.69499999 -0.29499999 6.2870002 4294904576 1564024270 190753 38
-0.64999998 -0.289 6.151 4294907648 1564024270 156719 201
-0.63700002 -0.289 6.1430001 4294907648 1564024270 173736 201
-0.62599999 -0.28999999 6.1459999 4294907648 1564024270 190753 201
-0.62300003 -0.28999999 6.1440001 4294907648 1564024270 173923 201
-0.61000001 -0.28999999 6.1529999 4294907648 1564024270 156719 202
-0.59299999 -0.28999999 6.1420002 4294907904 1564024270 140076 201
-0.579 -0.29100001 6.1570001 4294907648 1564024270 123807 203
-0.56 -0.29100001 6.1430001 4294907904 1564024270 207770 201
-0.542 -0.29100001 6.1490002 4294907648 1564024270 190753 201
-0.52200001 -0.29100001 6.1389999 4294907904 1564024270 173923 201
-0.50099999 -0.29100001 6.1360002 4294908160 1564024270 156719 201
-0.48100001 -0.292 6.1430001 4294907904 1564024270 123807 198
-0.479 -0.292 6.1360002 4294908160 1564024270 140076 200
-0.45899999 -0.292 6.1440001 4294907904 1564024270 140263 101
-0.435 -0.292 6.1389999 4294908160 1564024270 156719 109
-0.41100001 -0.292 6.132 4294908416 1564024270 173923 117
-0.38600001 -0.292 6.1350002 4294908416 1564024270 190940 123
-0.361 -0.29300001 6.1339998 4294908416 1564024270 207770 127
-0.333 -0.292 6.118 4294908672 1564024270 123807 144
-0.30599999 -0.292 6.1209998 4294908672 1564024270 140263 154
-0.27900001 -0.292 6.1230001 4294908672 1564024270 156719 157
-0.25099999 -0.292 6.1240001 4294908672 1564024270 173923 164
-0.222 -0.292 6.1230001 4294908672 1564024270 190940 175
-0.19 -0.29100001 6.1100001 4294908928 1564024270 156719 188
-0.162 -0.29100001 6.118 4294908928 1564024270 140076 137
-0.132 -0.28999999 6.1110001 4294908928 1564024270 123807 128
-0.102 -0.28999999 6.1170001 4294908928 1564024270 207770 125
-0.078000002 -0.289 6.1079998 4294909184 1564024270 173736 200
-0.048 -0.28799999 6.1059999 4294909184 1564024270 190753 201
-0.017999999 -0.287 6.092 4294909440 1564024270 207583 201
0.025 -0.28600001 6.0939999 4294909440 1564024270 140076 201
0.056000002 -0.28200001 6.033 4294910720 1564024270 123807 202
0.071999997 -0.28 5.9980001 4294911488 1564024270 140076 203
0.104 -0.28099999 6.0430002 4294910464 1564024270 156719 203
0.161 -0.28299999 6.1170001 4294908928 1564024270 156719 71
0.19599999 -0.28 6.0780001 4294909696 1564024270 207583 82
0.227 -0.27599999 6.0219998 4294910720 1564024270 123807 202
0.25999999 -0.27700001 6.0599999 4294909952 1564024270 207583 201
0.287 -0.27500001 6.059 4294909952 1564024270 156532 200
0.31900001 -0.27399999 6.053 4294910208 1564024270 173736 200
0.32800001 -0.273 6.0570002 4294909952 1564024270 173736 200
0.36000001 -0.27200001 6.0489998 4294910208 1564024270 156532 195
0.37599999 -0.271 6.0549998 4294909952 1564024270 207396 143
0.28999999 -0.183 4.2069998 4294948864 1564024270 123620 112
0.315 -0.18099999 4.184 4294949376 1564024270 156532 130
0.331 -0.17900001 4.1669998 4294949632 1564024270 190566 130
0.34999999 -0.178 4.1760001 4294949376 1564024270 190566 120
0.375 -0.177 4.1849999 4294949120 1564024270 156532 104
0.38800001 -0.177 4.1939998 4294948864 1564024270 123433 119
0.40599999 -0.176 4.191 4294948864 1564024270 139889 130
0.41600001 -0.175 4.1939998 4294948864 1564024270 207396 100
0.43799999 -0.17299999 4.1900001 4294948864 1564024270 156345 152
0.458 -0.17399999 4.2319999 4294948096 1564024270 173362 179
0.685 -0.249 5.9949999 4294910720 1564024270 190379 205
0.713 -0.249 6.0320001 4294909952 1564024270 207209 206
0.71600002 -0.249 6.0339999 4294909952 1564024270 139702 205
0.73900002 -0.248 6.0380001 4294909696 1564024270 123433 206
0.75199997 -0.24600001 6.0180001 4294910208 1564024270 139702 206
0.78500003 -0.244 6.0359998 4294909696 1564024270 190379 205
0.80800003 -0.241 6.0139999 4294910208 1564024270 190379 206
0.82099998 -0.23999999 6.0110002 4294910208 1564024270 156158 206
0.83700001 -0.23800001 6.0019999 4294910208 1564024270 139702 205
0.85399997 -0.236 5.9970002 4294910208 1564024270 139515 206
0.86799997 -0.235 6 4294910208 1564024270 156158 205
0.88200003 -0.234 5.9980001 4294910208 1564024270 190192 204
0.88999999 -0.23199999 5.9790001 4294910720 1564024270 173175 204
0.89200002 -0.23 5.9400001 4294911488 1564024270 207022 202
0.64099997 -0.163 4.289 4294946304 1564024270 123246 203
0.64600003 -0.162 4.2880001 4294946304 1564024270 139515 202
0.65600002 -0.163 4.3099999 4294945792 1564024270 207022 203
0.94400001 -0.233 6.0840001 4294908416 1564024270 190192 71
0.949 -0.233 6.092 4294908160 1564024270 173175 68
-0.67400002 -0.294 6.224 4294905856 1564024270 140076 63
-0.64700001 -0.28999999 6.1459999 4294907648 1564024270 207770 201
-0.63700002 -0.29100001 6.1550002 4294907392 1564024270 173923 201
-0.63599998 -0.29100001 6.152 4294907648 1564024270 190753 201
-0.62300003 -0.29100001 6.1459999 4294907648 1564024270 190940 201
-0.61000001 -0.29100001 6.1479998 4294907648 1564024270 207770 201
-0.59500003 -0.292 6.1539998 4294907648 1564024270 123807 201
-0.57800001 -0.292 6.1440001 4294907904 1564024270 140263 201
-0.56199998 -0.292 6.1469998 4294907648 1564024270 156719 201
-0.54400003 -0.29300001 6.1560001 4294907648 1564024270 173923 201
-0.52399999 -0.29300001 6.1440001 4294907904 1564024270 190940 201
-0.505 -0.29300001 6.1409998 4294907904 1564024270 156906 201
-0.50300002 -0.29300001 6.1409998 4294907904 1564024270 207770 200
-0.484 -0.29300001 6.138 4294908160 1564024270 140263 200
-0.461 -0.29300001 6.132 4294908160 1564024270 123807 200
-0.43799999 -0.29300001 6.1360002 4294908160 1564024270 207770 199
-0.41299999 -0.294 6.1329999 4294908416 1564024270 190940 192
-0.389 -0.294 6.132 4294908416 1564024270 173923 186
-0.36300001 -0.294 6.1300001 4294908416 1564024270 156906 185
-0.33700001 -0.29300001 6.1269999 4294908416 1564024270 140263 175
-0.31 -0.29300001 6.1209998 4294908672 1564024270 123807 189
-0.28200001 -0.29300001 6.125 4294908672 1564024270 207770 167
-0.25400001 -0.29300001 6.119 4294908672 1564024270 190940 158
-0.226 -0.29300001 6.125 4294908672 1564024270 173923 155
-0.19599999 -0.292 6.1139998 4294908928 1564024270 156906 150
-0.193 -0.292 6.1160002 4294908928 1564024270 207770 188
-0.164 -0.292 6.1100001 4294908928 1564024270 123807 190
-0.134 -0.292 6.1160002 4294908928 1564024270 140263 196
-0.105 -0.29100001 6.1079998 4294909184 1564024270 156719 200
-0.072999999 -0.28999999 6.1009998 4294909184 1564024270 173923 200
-0.071999997 -0.28999999 6.1059999 4294909184 1564024270 190753 200
-0.041000001 -0.289 6.1009998 4294909184 1564024270 173923 105
-0.0099999998 -0.289 6.1059999 4294909184 1564024270 156719 201
0.014 -0.287 6.085 4294909696 1564024270 123807 202
0.045000002 -0.28400001 6.0440001 4294910464 1564024270 140076 202
0.075999998 -0.28200001 6.0050001 4294911232 1564024270 156719 203
0.089000002 -0.28200001 6.0159998 4294910976 1564024270 207583 203
0.12 -0.28200001 6.0370002 4294910720 1564024270 190753 203
0.138 -0.285 6.1040001 4294909184 1564024270 173736 81
0.169 -0.27900001 6.0159998 4294910976 1564024270 190753 201
0.193 -0.28299999 6.112 4294908928 1564024270 140076 75
0.22400001 -0.27900001 6.0619998 4294909952 1564024270 123807 93
0.25999999 -0.278 6.0619998 4294909952 1564024270 140076 201
0.292 -0.27700001 6.0609999 4294909952 1564024270 190753 200
0.322 -0.27500001 6.0479999 4294910208 1564024270 173736 200
0.35100001 -0.27399999 6.0599999 4294909952 1564024270 190753 141
0.389 -0.271 6.0349998 4294910464 1564024270 139889 115
0.28 -0.186 4.243 4294948096 1564024270 123620 114
0.29800001 -0.183 4.204 4294948864 1564024270 139889 125
0.31 -0.182 4.1849999 4294949376 1564024270 207396 135
0.33399999 -0.18000001 4.177 4294949376 1564024270 173549 125
0.35100001 -0.17900001 4.1739998 4294949376 1564024270 173549 115
0.36899999 -0.178 4.1789999 4294949376 1564024270 207396 112
0.39399999 -0.177 4.1900001 4294949120 1564024270 139889 96
0.42399999 -0.175 4.1869998 4294949120 1564024270 156345 149
0.43399999 -0.175 4.1950002 4294948864 1564024270 190379 103
0.46399999 -0.176 4.263 4294947328 1564024270 173362 204
0.69499999 -0.25400001 6.0780001 4294908928 1564024270 156345 88
0.713 -0.25099999 6.0370002 4294909952 1564024270 139702 204
0.73500001 -0.248 6.0219998 4294910208 1564024270 123433 206
0.76099998 -0.24699999 6.0380001 4294909696 1564024270 207209 206
0.77399999 -0.245 6.0250001 4294909952 1564024270 156345 205
0.79400003 -0.244 6.0229998 4294909952 1564024270 173362 205
0.801 -0.243 6.013 4294910208 1564024270 173362 205
0.82200003 -0.242 6.027 4294909696 1564024270 156345 206
0.82200003 -0.23999999 5.9920001 4294910464 1564024270 207209 205
0.83899999 -0.23800001 5.9899998 4294910464 1564024270 123246 207
0.852 -0.23800001 6.0019999 4294910208 1564024270 123246 205
0.86699998 -0.236 5.9980001 4294910208 1564024270 207209 205
0.88 -0.235 5.9910002 4294910464 1564024270 173175 204
0.88599998 -0.23199999 5.954 4294911232 1564024270 190192 204
0.89300001 -0.23 5.9299998 4294911744 1564024270 156158 202
0.92900002 -0.237 6.1020002 4294907904 1564024270 139515 73
0.648 -0.163 4.2969999 4294946304 1564024270 123246 203
0.94099998 -0.235 6.098 4294907904 1564024270 156158 72
0.94599998 -0.235 6.0970001 4294907904 1564024270 173175 71
0.95099998 -0.235 6.1100001 4294907648 1564024270 190192 71
0.92500001 -0.228 5.9349999 4294911488 1564024270 207022 203
-0.68300003 -0.296 6.2389998 4294905600 1564024270 207770 57
-0.65899998 -0.292 6.1630001 4294907136 1564024270 140263 201
-0.648 -0.292 6.1459999 4294907648 1564024270 207770 201
-0.648 -0.292 6.151 4294907648 1564024270 156719 201
-0.639 -0.292 6.1539998 4294907392 1564024270 190940 201
-0.625 -0.292 6.1440001 4294907648 1564024270 173923 201
-0.611 -0.292 6.1399999 4294907904 1564024270 156719 200
-0.59600002 -0.29300001 6.1440001 4294907648 1564024270 140263 201
-0.58099997 -0.29300001 6.1459999 4294907648 1564024270 123807 203
-0.56300002 -0.29300001 6.1430001 4294907904 1564024270 207770 201
-0.54500002 -0.294 6.1469998 4294907904 1564024270 190940 201
-0.52600002 -0.294 6.1430001 4294907904 1564024270 173923 201
-0.52100003 -0.294 6.1490002 4294907904 1564024270 190940 200
-0.5 -0.294 6.1360002 4294908160 1564024270 207770 200
-0.479 -0.29499999 6.152 4294907904 1564024270 123807 197
-0.456 -0.29499999 6.1420002 4294908160 1564024270 140263 196
-0.433 -0.29499999 6.1440001 4294908160 1564024270 156906 109
-0.40700001 -0.29499999 6.1329999 4294908416 1564024270 173923 115
-0.38299999 -0.29499999 6.1350002 4294908416 1564024270 190940 121
-0.35800001 -0.29499999 6.1279998 4294908416 1564024270 207770 128
-0.33000001 -0.29499999 6.1220002 4294908672 1564024270 123807 144
-0.303 -0.29499999 6.1259999 4294908672 1564024270 140263 152
-0.27599999 -0.294 6.1199999 4294908672 1564024270 156906 157
-0.24699999 -0.294 6.1240001 4294908672 1564024270 173923 165
-0.21799999 -0.294 6.118 4294908928 1564024270 190940 174
-0.189 -0.29300001 6.1079998 4294909184 1564024270 207770 186
-0.167 -0.29300001 6.1149998 4294908928 1564024270 140263 134
-0.138 -0.29300001 6.1079998 4294909184 1564024270 123807 129
-0.107 -0.292 6.1090002 4294909184 1564024270 207770 125
-0.077 -0.29100001 6.1059999 4294909184 1564024270 190940 113
-0.043000001 -0.28999999 6.092 4294909440 1564024270 190940 201
-0.012 -0.28999999 6.0970001 4294909440 1564024270 207770 201
0.018999999 -0.289 6.0939999 4294909440 1564024270 123807 201
0.02 -0.28799999 6.0830002 4294909696 1564024270 140076 201
0.050999999 -0.285 6.0370002 4294910720 1564024270 123807 203
0.083999999 -0.28299999 6.0149999 4294910976 1564024270 207770 203
0.109 -0.28400001 6.0450001 4294910464 1564024270 173736 203
0.141 -0.28099999 5.9990001 4294911488 1564024270 190753 202
0.152 -0.28099999 6.013 4294910976 1564024270 173736 202
0.184 -0.28 6.0139999 4294910976 1564024270 156719 201
0.20200001 -0.28299999 6.085 4294909440 1564024270 207583 81
0.234 -0.28 6.052 4294910208 1564024270 123807 201
0.25600001 -0.27900001 6.0599999 4294909952 1564024270 207583 201
0.292 -0.278 6.059 4294909952 1564024270 156719 200
0.324 -0.27599999 6.0570002 4294909952 1564024270 173736 200
0.35499999 -0.27500001 6.0560002 4294909952 1564024270 156719 196
0.38 -0.27200001 6.0380001 4294910464 1564024270 207583 119
0.28799999 -0.186 4.2220001 4294948608 1564024270 123620 110
0.317 -0.182 4.1810002 4294949376 1564024270 156532 128
0.329 -0.18099999 4.1739998 4294949376 1564024270 190566 126
0.35299999 -0.17900001 4.1669998 4294949632 1564024270 190566 120
0.37099999 -0.17900001 4.1729999 4294949376 1564024270 156532 103
0.391 -0.17900001 4.198 4294948864 1564024270 123620 113
0.41 -0.177 4.197 4294948864 1564024270 139889 136
0.414 -0.177 4.2020001 4294948608 1564024270 123620 103
0.44499999 -0.176 4.2119999 4294948352 1564024270 173549 139
0.45500001 -0.176 4.23 4294948096 1564024270 173549 160
0.495 -0.183 4.415 4294944000 1564024270 156345 202
0.69 -0.252 6.0149999 4294910208 1564024270 190379 204
0.71499997 -0.25099999 6.0219998 4294910208 1564024270 207209 204
0.73699999 -0.25 6.0380001 4294909696 1564024270 123433 205
0.755 -0.24699999 6.0120001 4294910208 1564024270 139702 206
0.78100002 -0.24600001 6.0339999 4294909696 1564024270 190379 205
0.81 -0.243 6.0050001 4294910208 1564024270 190379 205
0.83600003 -0.241 6.0089998 4294910208 1564024270 139702 205
0.85600001 -0.23800001 5.9990001 4294910208 1564024270 139702 206
0.87 -0.237 5.9949999 4294910208 1564024270 156158 204
0.88 -0.236 5.9959998 4294910208 1564024270 190379 204
0.89099997 -0.235 5.9970002 4294910208 1564024270 173362 203
0.92000002 -0.23899999 6.105 4294907904 1564024270 207022 71
0.64200002 -0.164 4.2909999 4294946304 1564024270 123246 202
0.93599999 -0.237 6.1030002 4294907904 1564024270 139515 70
0.94300002 -0.237 6.105 4294907904 1564024270 207022 69
0.94499999 -0.236 6.0900002 4294908160 1564024270 190192 68
0.921 -0.229 5.9229999 4294911744 1564024270 173175 203
-0.699 -0.301 6.322 4294903808 1564024270 173923 28
-0.68699998 -0.29800001 6.2620001 4294905088 1564024270 156719 47
-0.65799999 -0.29300001 6.158 4294907392 1564024270 140263 201
-0.64700001 -0.29300001 6.151 4294907648 1564024270 156906 201
-0.63599998 -0.294 6.158 4294907392 1564024270 173923 201
-0.62400001 -0.294 6.1620002 4294907392 1564024270 190940 201
-0.60900003 -0.294 6.1500001 4294907648 1564024270 207770 201
-0.59299999 -0.294 6.1490002 4294907648 1564024270 123807 201
-0.57599998 -0.294 6.1409998 4294907904 1564024270 140263 201
-0.56 -0.29499999 6.1500001 4294907648 1564024270 156906 201
-0.54799998 -0.29499999 6.1479998 4294907648 1564024270 190940 200
-0.54100001 -0.29499999 6.1420002 4294907904 1564024270 173923 201
-0.52899998 -0.29499999 6.145 4294907904 1564024270 173923 201
-0.50700003 -0.29499999 6.1329999 4294908160 1564024270 156906 200
-0.486 -0.296 6.1370001 4294908160 1564024270 140263 197
-0.46399999 -0.296 6.132 4294908160 1564024270 123994 200
-0.44 -0.296 6.1290002 4294908416 1564024270 207770 201
-0.417 -0.296 6.1350002 4294908160 1564024270 190940 190
-0.39300001 -0.296 6.1300001 4294908416 1564024270 173923 185
-0.366 -0.296 6.1360002 4294908416 1564024270 156906 181
-0.34 -0.296 6.1240001 4294908672 1564024270 140263 173
-0.31400001 -0.296 6.125 4294908672 1564024270 123994 177
-0.28600001 -0.296 6.1220002 4294908672 1564024270 207770 185
-0.25799999 -0.296 6.118 4294908672 1564024270 190940 158
-0.23 -0.296 6.1269999 4294908672 1564024270 173923 169
-0.2 -0.29499999 6.1160002 4294908928 1564024270 156906 146
-0.171 -0.29499999 6.1139998 4294908928 1564024270 140263 135
-0.15899999 -0.29499999 6.1170001 4294908928 1564024270 123807 191
-0.131 -0.294 6.1149998 4294908928 1564024270 140263 194
-0.1 -0.294 6.1160002 4294908928 1564024270 156906 200
-0.068999998 -0.29300001 6.1030002 4294909184 1564024270 173923 200
-0.046 -0.292 6.0939999 4294909440 1564024270 173923 201
-0.015 -0.29100001 6.0960002 4294909440 1564024270 156906 201
0.015 -0.28999999 6.0960002 4294909440 1564024270 140263 201
0.050000001 -0.28600001 6.0300002 4294910720 1564024270 140263 202
0.082000002 -0.285 6.0250001 4294910976 1564024270 156719 203
0.117 -0.285 6.04 4294910464 1564024270 190753 203
0.148 -0.28299999 6.0190001 4294910976 1564024270 173923 201
0.17299999 -0.28200001 6.0279999 4294910720 1564024270 207583 201
0.219 -0.28299999 6.0879998 4294909440 1564024270 140076 90
0.266 -0.28 6.0640001 4294909952 1564024270 140076 200
0.287 -0.27900001 6.0630002 4294909952 1564024270 190753 200
0.31799999 -0.27700001 6.0500002 4294910208 1564024270 173736 198
0.35499999 -0.27599999 6.0580001 4294909952 1564024270 190753 192
0.384 -0.27399999 6.0419998 4294910208 1564024270 140076 148
0.28400001 -0.18799999 4.2389998 4294948096 1564024270 123620 113
0.30199999 -0.185 4.2030001 4294948864 1564024270 140076 124
0.30700001 -0.184 4.191 4294949120 1564024270 207583 129
0.33700001 -0.182 4.1820002 4294949376 1564024270 173549 126
0.34799999 -0.18099999 4.1719999 4294949376 1564024270 173549 117
0.373 -0.18000001 4.1810002 4294949120 1564024270 207396 114
0.39199999 -0.17900001 4.1960001 4294948864 1564024270 139889 97
0.41100001 -0.178 4.2059999 4294948608 1564024270 123620 102
0.42699999 -0.177 4.191 4294948864 1564024270 156532 148
0.43200001 -0.177 4.1989999 4294948864 1564024270 207396 140
0.45199999 -0.177 4.2249999 4294948096 1564024270 190566 149
0.472 -0.17900001 4.3039999 4294946560 1564024270 190566 206
0.70899999 -0.25299999 6.0349998 4294909952 1564024270 139889 203
0.73799998 -0.25 6.0170002 4294910208 1564024270 123433 206
0.75800002 -0.249 6.0339999 4294909696 1564024270 207209 205
0.77700001 -0.24699999 6.02 4294909952 1564024270 156345 204
0.79699999 -0.24600001 6.0219998 4294909952 1564024270 173362 204
0.80199999 -0.24600001 6.04 4294909440 1564024270 173362 204
0.81800002 -0.244 6.0219998 4294909952 1564024270 156345 205
0.82800001 -0.242 6.0050001 4294910208 1564024270 207209 204
0.84399998 -0.241 6.0029998 4294910208 1564024270 123433 206
0.85000002 -0.23999999 5.9970002 4294910208 1564024270 123433 205
0.866 -0.23899999 6.0050001 4294910208 1564024270 207209 205
0.88300002 -0.237 6 4294910208 1564024270 173362 204
0.88800001 -0.235 5.9580002 4294910976 1564024270 190379 203
0.89399999 -0.233 5.948 4294911232 1564024270 156158 202
0.92799997 -0.23899999 6.1020002 4294907904 1564024270 139702 67
0.93400002 -0.23800001 6.0960002 4294908160 1564024270 123246 77
0.94300002 -0.23800001 6.1020002 4294907904 1564024270 156158 67
0.94599998 -0.237 6.0939999 4294908160 1564024270 173175 67
0.92299998 -0.23 5.9349999 4294911488 1564024270 190192 203
0.926 -0.23 5.9390001 4294911232 1564024270 207022 203
-0.704 -0.303 6.3340001 4294903552 1564024270 173923 17
-0.68300003 -0.29800001 6.2319999 4294905856 1564024270 207770 58
-0.667 -0.29699999 6.2080002 4294906368 1564024270 123994 73
-0.65200001 -0.29499999 6.1609998 4294907392 1564024270 207770 200
-0.63999999 -0.294 6.1469998 4294907648 1564024270 190940 201
-0.62800002 -0.29499999 6.1550002 4294907392 1564024270 173923 200
-0.61400002 -0.29499999 6.1469998 4294907648 1564024270 156906 200
-0.59899998 -0.29499999 6.1430001 4294907648 1564024270 140263 200
-0.583 -0.296 6.145 4294907648 1564024270 123994 203
-0.56699997 -0.296 6.151 4294907648 1564024270 207770 200
-0.55699998 -0.296 6.145 4294907904 1564024270 156906 200
-0.537 -0.296 6.1420002 4294907904 1564024270 173923 200
-0.51800001 -0.29699999 6.151 4294907648 1564024270 190940 200
-0.49700001 -0.29699999 6.145 4294907904 1564024270 207770 200
-0.47499999 -0.29800001 6.1469998 4294907904 1564024270 123994 199
-0.45300001 -0.29800001 6.1440001 4294907904 1564024270 140263 103
-0.42899999 -0.29800001 6.1389999 4294908160 1564024270 156906 112
-0.40400001 -0.29699999 6.132 4294908416 1564024270 173923 116
-0.37900001 -0.29800001 6.1350002 4294908416 1564024270 190940 120
-0.35299999 -0.29699999 6.1279998 4294908416 1564024270 207770 130
-0.32499999 -0.29699999 6.125 4294908672 1564024270 123994 145
-0.29800001 -0.29699999 6.1240001 4294908672 1564024270 140263 150
-0.271 -0.29699999 6.125 4294908672 1564024270 156906 158
-0.242 -0.29699999 6.1139998 4294908928 1564024270 173923 166
-0.214 -0.29699999 6.125 4294908672 1564024270 190940 176
-0.185 -0.296 6.1160002 4294908928 1564024270 207770 185
-0.155 -0.29499999 6.1079998 4294909184 1564024270 123994 188
-0.142 -0.296 6.1170001 4294908928 1564024270 123994 131
-0.111 -0.29499999 6.105 4294909184 1564024270 207770 133
-0.081 -0.294 6.105 4294909184 1564024270 190940 121
-0.050999999 -0.294 6.1059999 4294909184 1564024270 173923 110
-0.039000001 -0.29300001 6.1079998 4294909184 1564024270 190940 200
-0.0089999996 -0.292 6.0890002 4294909440 1564024270 207770 201
0.023 -0.29100001 6.0830002 4294909696 1564024270 123807 202
0.046 -0.289 6.053 4294910208 1564024270 123807 202
0.079000004 -0.28600001 6.0250001 4294910976 1564024270 207770 202
0.115 -0.28600001 6.0489998 4294910208 1564024270 173923 202
0.146 -0.28400001 6.0159998 4294910976 1564024270 190940 201
0.18099999 -0.28299999 6.0349998 4294910720 1564024270 156719 201
0.208 -0.285 6.085 4294909440 1564024270 123807 82
0.23800001 -0.28200001 6.0580001 4294910208 1564024270 140076 200
0.249 -0.28200001 6.0599999 4294909952 1564024270 123807 201
0.28200001 -0.28099999 6.0630002 4294909952 1564024270 207583 200
0.29699999 -0.28 6.0689998 4294909696 1564024270 156719 200
0.329 -0.27900001 6.0609999 4294909952 1564024270 173736 197
0.35100001 -0.27700001 6.0479999 4294910208 1564024270 156719 195
0.382 -0.27399999 6.013 4294910976 1564024270 207583 126
0.28600001 -0.189 4.243 4294948096 1564024270 123620 114
0.32100001 -0.184 4.1900001 4294949120 1564024270 156532 130
0.32600001 -0.183 4.1739998 4294949376 1564024270 190566 126
0.34599999 -0.182 4.184 4294949120 1564024270 173736 115
0.35600001 -0.18099999 4.1750002 4294949376 1564024270 190566 118
0.36899999 -0.18000001 4.177 4294949376 1564024270 156532 105
0.389 -0.18000001 4.1929998 4294948864 1564024270 139889 112
0.39399999 -0.18000001 4.198 4294948864 1564024270 123620 118
0.41299999 -0.17900001 4.2010002 4294948864 1564024270 139889 139
0.42899999 -0.178 4.2020001 4294948608 1564024270 207396 100
0.44800001 -0.177 4.2199998 4294948352 1564024270 173549 155
0.484 -0.182 4.349 4294945536 1564024270 173549 205
0.69599998 -0.255 6.0209999 4294910208 1564024270 207396 203
0.73199999 -0.252 6.0300002 4294909952 1564024270 123433 204
0.759 -0.25 6.0170002 4294910208 1564024270 139702 206
0.778 -0.249 6.0320001 4294909696 1564024270 190379 204
0.79699999 -0.24699999 6.0289998 4294909696 1564024270 173362 204
0.81400001 -0.245 6.0139999 4294910208 1564024270 190379 204
0.83399999 -0.243 6.0170002 4294909952 1564024270 139702 204
0.85699999 -0.23999999 5.9879999 4294910464 1564024270 139702 204
0.87199998 -0.23899999 6.0009999 4294910208 1564024270 156345 205
0.87900001 -0.23899999 6.0029998 4294910208 1564024270 190379 204
0.889 -0.237 5.9899998 4294910464 1564024270 173362 203
0.89300001 -0.234 5.9289999 4294911744 1564024270 207209 202
0.64300001 -0.16599999 4.2909999 4294946304 1564024270 123246 206
0.93599999 -0.23899999 6.0949998 4294908160 1564024270 139702 66
0.94199997 -0.23899999 6.1020002 4294907904 1564024270 207209 69
0.94599998 -0.23800001 6.099 4294907904 1564024270 190379 72
0.92400002 -0.23100001 5.9419999 4294911232 1564024270 173362 203
-0.70099998 -0.30399999 6.329 4294903808 1564024270 173923 23
-0.68800002 -0.301 6.2639999 4294905088 1564024270 156906 49
-0.67199999 -0.29899999 6.2189999 4294906112 1564024270 123994 70
-0.65700001 -0.296 6.1599998 4294907392 1564024270 140263 200
-0.64600003 -0.296 6.1529999 4294907392 1564024270 156906 200
-0.63300002 -0.29499999 6.138 4294907904 1564024270 173923 201
-0.62099999 -0.29699999 6.1570001 4294907392 1564024270 190940 201
-0.60699999 -0.29699999 6.1500001 4294907648 1564024270 207770 200
-0.58999997 -0.29699999 6.1440001 4294907648 1564024270 123994 201
-0.57499999 -0.29800001 6.1529999 4294907648 1564024270 140263 201
-0.56900001 -0.29699999 6.1440001 4294907904 1564024270 207770 201
-0.551 -0.29699999 6.1409998 4294907904 1564024270 190940 201
-0.53299999 -0.29800001 6.1490002 4294907648 1564024270 173923 200
-0.51099998 -0.29800001 6.132 4294908160 1564024270 156906 201
-0.48899999 -0.29800001 6.1279998 4294908416 1564024270 140263 198
-0.46900001 -0.29800001 6.138 4294908160 1564024270 123994 201
-0.44499999 -0.29899999 6.1370001 4294908160 1564024270 207770 192
-0.42199999 -0.29899999 6.1370001 4294908160 1564024270 190940 186
-0.39700001 -0.29800001 6.1269999 4294908416 1564024270 173923 189
-0.37099999 -0.29800001 6.1220002 4294908672 1564024270 156906 182
-0.345 -0.29899999 6.1279998 4294908416 1564024270 140263 176
-0.31900001 -0.29899999 6.125 4294908672 1564024270 123994 178
-0.28999999 -0.29800001 6.1139998 4294908928 1564024270 207770 165
-0.26300001 -0.29800001 6.1230001 4294908672 1564024270 190940 155
-0.235 -0.29800001 6.1240001 4294908672 1564024270 173923 153
-0.205 -0.29800001 6.118 4294908928 1564024270 156906 146
-0.176 -0.29699999 6.1160002 4294908928 1564024270 140263 146
-0.147 -0.29699999 6.1079998 4294909184 1564024270 123994 129
-0.125 -0.296 6.1079998 4294909184 1564024270 140263 194
-0.096000001 -0.296 6.1090002 4294909184 1564024270 156906 198
-0.064000003 -0.29499999 6.0960002 4294909440 1564024270 173923 200
-0.034000002 -0.294 6.098 4294909440 1564024270 190940 200
-0.02 -0.294 6.098 4294909440 1564024270 156906 200
0.0099999998 -0.29300001 6.0910001 4294909440 1564024270 140263 201
0.054000001 -0.289 6.0409999 4294910464 1564024270 140263 202
0.086000003 -0.287 6.0240002 4294910976 1564024270 156906 202
0.111 -0.28799999 6.0450001 4294910464 1564024270 190940 202
0.142 -0.285 6.0100002 4294911232 1564024270 173923 201
0.17900001 -0.28600001 6.053 4294910208 1564024270 207770 200
0.212 -0.28299999 6.0219998 4294910976 1564024270 140076 201
0.244 -0.28299999 6.0510001 4294910208 1564024270 123807 201
0.27000001 -0.28299999 6.0700002 4294909696 1564024270 156719 200
0.31299999 -0.28 6.0599999 4294909952 1564024270 190753 200
0.36000001 -0.278 6.0549998 4294909952 1564024270 190753 185
0.38100001 -0.27700001 6.0539999 4294909952 1564024270 140076 165
0.285 -0.191 4.27 4294947584 1564024270 123807 120
0.28600001 -0.189 4.2319999 4294948352 1564024270 123620 111
0.30399999 -0.186 4.204 4294948864 1564024270 140076 117
0.322 -0.184 4.171 4294949376 1564024270 190753 131
0.34099999 -0.183 4.177 4294949376 1564024270 173736 117
0.36500001 -0.18099999 4.1729999 4294949376 1564024270 156532 106
0.37599999 -0.182 4.1919999 4294948864 1564024270 207396 113
0.40900001 -0.18000001 4.204 4294948608 1564024270 123620 101
0.43099999 -0.178 4.1989999 4294948864 1564024270 156532 138
0.449 -0.178 4.223 4294948096 1564024270 190566 141
0.48199999 -0.184 4.3720002 4294945024 1564024270 190566 205
0.70599997 -0.255 6.0320001 4294909952 1564024270 156532 202
0.72000003 -0.25400001 6.0209999 4294910208 1564024270 123433 204
0.741 -0.252 6.013 4294910208 1564024270 139889 203
0.75400001 -0.252 6.027 4294909952 1564024270 207396 204
0.77999997 -0.249 6.0240002 4294909952 1564024270 156345 204
0.81599998 -0.24600001 6.0240002 4294909952 1564024270 156345 204
0.82999998 -0.244 6.0019999 4294910208 1564024270 207209 204
0.84600002 -0.242 5.9949999 4294910464 1564024270 123433 206
0.84899998 -0.243 6.0139999 4294909952 1564024270 123433 204
0.86400002 -0.241 6.0050001 4294910208 1564024270 207209 204
0.88499999 -0.23899999 5.9970002 4294910208 1564024270 173362 203
0.89099997 -0.237 5.9679999 4294910720 1564024270 190379 202
0.89600003 -0.236 5.9640002 4294910976 1564024270 156345 202
0.89999998 -0.234 5.9299998 4294911488 1564024270 139702 201
0.935 -0.241 6.1079998 4294907904 1564024270 123433 70
0.94199997 -0.23999999 6.0970001 4294907904 1564024270 156158 69
0.91600001 -0.23100001 5.908 4294912000 1564024270 173362 203
0.92299998 -0.23199999 5.9320002 4294911488 1564024270 190379 202
0.92699999 -0.233 5.9450002 4294911232 1564024270 207209 202
-0.68000001 -0.301 6.244 4294905600 1564024270 140263 59
-0.653 -0.29699999 6.152 4294907392 1564024270 207770 200
-0.64200002 -0.29699999 6.1479998 4294907648 1564024270 190940 200
-0.62900001 -0.29699999 6.1399999 4294907648 1564024270 173923 201
-0.61699998 -0.29800001 6.1490002 4294907648 1564024270 156906 200
-0.602 -0.29800001 6.1409998 4294907904 1564024270 140263 200
-0.588 -0.29800001 6.1469998 4294907648 1564024270 123994 201
-0.58700001 -0.29800001 6.1469998 4294907648 1564024270 123994 203
-0.57200003 -0.29899999 6.151 4294907648 1564024270 140263 200
-0.55400002 -0.29899999 6.152 4294907648 1564024270 156906 200
-0.53500003 -0.29899999 6.1490002 4294907648 1564024270 173923 200
-0.51599997 -0.30000001 6.1529999 4294907648 1564024270 190940 200
-0.495 -0.30000001 6.1529999 4294907648 1564024270 207770 197
-0.47099999 -0.30000001 6.1420002 4294907904 1564024270 123994 195
-0.44800001 -0.30000001 6.1420002 4294908160 1564024270 140263 104
-0.42500001 -0.30000001 6.1389999 4294908160 1564024270 156906 185
-0.40000001 -0.30000001 6.1269999 4294908416 1564024270 174110 182
-0.39899999 -0.30000001 6.132 4294908416 1564024270 173923 123
-0.37400001 -0.30000001 6.1240001 4294908672 1564024270 156906 178
-0.34900001 -0.30000001 6.125 4294908672 1564024270 140263 178
-0.32300001 -0.30000001 6.132 4294908416 1564024270 123994 173
-0.32100001 -0.30000001 6.125 4294908672 1564024270 123994 144
-0.29300001 -0.29899999 6.1160002 4294908672 1564024270 207957 166
-0.26699999 -0.30000001 6.125 4294908672 1564024270 156906 159
-0.23800001 -0.30000001 6.1279998 4294908672 1564024270 173923 165
-0.20900001 -0.29899999 6.1220002 4294908672 1564024270 190940 177
-0.18000001 -0.29899999 6.1139998 4294908928 1564024270 207770 184
-0.149 -0.29800001 6.1100001 4294908928 1564024270 123994 189
-0.12 -0.29800001 6.1129999 4294908928 1564024270 140263 195
-0.116 -0.29800001 6.118 4294908928 1564024270 207770 138
-0.086999997 -0.29699999 6.1129999 4294908928 1564024270 190940 124
-0.056000002 -0.296 6.1090002 4294909184 1564024270 173923 115
-0.025 -0.29499999 6.1030002 4294909184 1564024270 156906 200
-0.003 -0.294 6.0890002 4294909440 1564024270 207770 201
0.028999999 -0.29300001 6.0830002 4294909696 1564024270 123994 201
0.043000001 -0.292 6.0679998 4294909952 1564024270 123994 202
0.075000003 -0.289 6.0289998 4294910720 1564024270 207770 201
0.107 -0.289 6.0450001 4294910464 1564024270 190940 202
0.119 -0.28799999 6.0380001 4294910464 1564024270 173923 202
0.15099999 -0.287 6.039 4294910464 1564024270 190940 201
0.176 -0.287 6.0430002 4294910464 1564024270 156906 200
0.206 -0.28400001 6.0139999 4294910976 1564024270 140263 200
0.212 -0.285 6.033 4294910720 1564024270 123807 201
0.244 -0.285 6.0640001 4294909952 1564024270 140263 200
0.27900001 -0.28400001 6.0669999 4294909952 1564024270 207770 196
0.30199999 -0.28200001 6.0599999 4294909952 1564024270 173736 200
0.33399999 -0.28099999 6.0669999 4294909696 1564024270 190753 195
0.34400001 -0.28 6.0609999 4294909952 1564024270 173736 195
0.37599999 -0.278 6.052 4294910208 1564024270 156719 177
0.38800001 -0.27599999 6.0089998 4294910976 1564024270 207583 111
0.301 -0.18700001 4.1890001 4294949120 1564024270 207583 117
0.32300001 -0.185 4.1849999 4294949120 1564024270 156719 132
0.34200001 -0.184 4.1820002 4294949376 1564024270 173736 116
0.359 -0.182 4.171 4294949376 1564024270 190753 108
0.38699999 -0.182 4.2010002 4294948864 1564024270 139889 113
0.396 -0.18099999 4.1950002 4294948864 1564024270 123620 121
0.42699999 -0.17900001 4.198 4294948864 1564024270 207396 100
0.45300001 -0.18000001 4.237 4294947840 1564024270 173549 183
0.47600001 -0.182 4.3119998 4294946304 1564024270 173549 204
0.699 -0.257 6.0229998 4294910208 1564024270 207396 203
0.72799999 -0.255 6.0300002 4294909952 1564024270 139889 203
0.76300001 -0.252 6.0209999 4294909952 1564024270 156345 205
0.77399999 -0.25099999 6.027 4294909952 1564024270 190379 204
0.79500002 -0.25 6.0339999 4294909696 1564024270 173549 203
0.80000001 -0.249 6.0209999 4294909952 1564024270 173362 204
0.81800002 -0.24699999 6.0139999 4294909952 1564024270 190379 204
0.83200002 -0.24600001 6.0110002 4294910208 1564024270 139702 204
0.847 -0.244 6.0089998 4294910208 1564024270 123433 203
0.86199999 -0.243 6.0029998 4294910208 1564024270 139702 203
0.87800002 -0.242 6.0120001 4294909952 1564024270 190379 203
0.889 -0.23999999 6.006 4294909952 1564024270 173362 203
0.89399999 -0.235 5.9239998 4294911744 1564024270 207209 201
0.64600003 -0.168 4.3039999 4294946048 1564024270 123433 202
0.94199997 -0.241 6.1079998 4294907648 1564024270 207209 70
0.91799998 -0.234 5.9299998 4294911488 1564024270 190379 202
0.92199999 -0.233 5.9320002 4294911488 1564024270 173362 202
0.92299998 -0.233 5.9219999 4294911744 1564024270 156345 202
-0.704 -0.30700001 6.335 4294903552 1564024270 174110 24
-0.67900002 -0.301 6.2249999 4294905856 1564024270 207770 62
-0.671 -0.30199999 6.224 4294905856 1564024270 123994 71
-0.65499997 -0.29899999 6.1630001 4294907136 1564024270 140263 200
-0.64300001 -0.29800001 6.1459999 4294907648 1564024270 156906 200
-0.63099998 -0.29899999 6.1490002 4294907648 1564024270 173923 200
-0.62 -0.29899999 6.1570001 4294907392 1564024270 190940 200
-0.60500002 -0.29899999 6.152 4294907648 1564024270 207770 200
-0.58899999 -0.30000001 6.1539998 4294907648 1564024270 123994 202
-0.57099998 -0.30000001 6.1409998 4294907904 1564024270 207957 201
-0.55400002 -0.30000001 6.145 4294907904 1564024270 190940 200
-0.53600001 -0.30000001 6.1440001 4294907904 1564024270 174110 200
-0.51499999 -0.301 6.1440001 4294907904 1564024270 156906 200
-0.493 -0.30000001 6.1300001 4294908160 1564024270 140263 198
-0.47099999 -0.301 6.1350002 4294908160 1564024270 123994 200
-0.44800001 -0.301 6.1370001 4294908160 1564024270 207957 191
-0.42399999 -0.301 6.1339998 4294908160 1564024270 190940 195
-0.42199999 -0.301 6.1339998 4294908160 1564024270 156906 111
-0.39700001 -0.30199999 6.138 4294908160 1564024270 174110 117
-0.37200001 -0.30199999 6.1350002 4294908416 1564024270 191127 122
-0.34599999 -0.30199999 6.1339998 4294908416 1564024270 207957 134
-0.31799999 -0.301 6.1290002 4294908416 1564024270 123994 144
-0.28999999 -0.301 6.1230001 4294908672 1564024270 140450 152
-0.26699999 -0.301 6.1170001 4294908672 1564024270 190940 157
-0.264 -0.301 6.1269999 4294908672 1564024270 156906 157
-0.23899999 -0.301 6.1230001 4294908672 1564024270 174110 153
-0.20900001 -0.30000001 6.1170001 4294908928 1564024270 156906 150
-0.18000001 -0.30000001 6.1209998 4294908672 1564024270 140263 136
-0.15099999 -0.30000001 6.112 4294908928 1564024270 123994 133
-0.12 -0.29899999 6.1129999 4294908928 1564024270 207957 125
-0.090000004 -0.29800001 6.1069999 4294909184 1564024270 156906 197
-0.059 -0.29800001 6.1090002 4294909184 1564024270 173923 200
-0.028000001 -0.29699999 6.098 4294909440 1564024270 190940 200
0.0049999999 -0.29499999 6.0910001 4294909440 1564024270 140263 200
0.037 -0.294 6.0799999 4294909696 1564024270 123994 201
0.059999999 -0.29100001 6.0289998 4294910720 1564024270 140263 201
0.090999998 -0.29100001 6.052 4294910208 1564024270 156906 201
0.138 -0.289 6.033 4294910720 1564024270 173923 201
0.182 -0.287 6.0380001 4294910464 1564024270 207770 201
0.23899999 -0.28600001 6.0599999 4294909952 1564024270 123807 201
0.27599999 -0.285 6.0650001 4294909952 1564024270 156719 195
0.30899999 -0.28299999 6.0630002 4294909952 1564024270 190753 200
0.34 -0.28200001 6.0609999 4294909952 1564024270 173923 194
0.36399999 -0.28099999 6.059 4294909952 1564024270 207583 181
0.287 -0.19599999 4.3410001 4294946048 1564024270 140076 126
0.289 -0.19 4.224 4294948352 1564024270 123807 111
0.31999999 -0.186 4.1810002 4294949376 1564024270 190753 133
0.34200001 -0.184 4.165 4294949632 1564024270 173736 119
0.36199999 -0.183 4.1750002 4294949376 1564024270 156719 107
0.37900001 -0.183 4.1900001 4294949120 1564024270 207583 116
0.40599999 -0.182 4.2069998 4294948608 1564024270 123620 101
0.41499999 -0.18099999 4.1950002 4294948864 1564024270 139889 143
0.433 -0.18000001 4.2030001 4294948608 1564024270 156532 138
0.44499999 -0.17900001 4.2069998 4294948608 1564024270 190566 140
0.68800002 -0.26199999 6.092 4294908672 1564024270 190566 81
0.70200002 -0.25799999 6.0300002 4294909952 1564024270 156532 202
0.72399998 -0.25600001 6.0300002 4294909952 1564024270 123620 205
0.74400002 -0.25400001 6.0180001 4294910208 1564024270 139889 202
0.75 -0.25400001 6.0219998 4294909952 1564024270 123620 203
0.77200001 -0.25299999 6.0289998 4294909952 1564024270 207396 203
0.78500003 -0.25099999 6.0250001 4294909952 1564024270 173549 203
0.81300002 -0.249 6.0240002 4294909952 1564024270 156345 203
0.833 -0.24600001 6.0040002 4294910208 1564024270 207209 203
0.86199999 -0.244 6.007 4294910208 1564024270 207209 203
0.87599999 -0.243 6.0050001 4294910208 1564024270 156345 203
0.88499999 -0.241 5.9860001 4294910464 1564024270 173362 202
0.89600003 -0.23899999 5.9720001 4294910720 1564024270 156345 202
0.90100002 -0.237 5.9460001 4294911232 1564024270 139702 201
0.90399998 -0.235 5.9180002 4294911744 1564024270 123433 201
0.94 -0.243 6.1129999 4294907648 1564024270 139702 69
0.94400001 -0.242 6.1040001 4294907904 1564024270 156345 68
0.92400002 -0.235 5.948 4294911232 1564024270 173362 201
0.926 -0.235 5.9429998 4294911232 1564024270 190379 201
0.93099999 -0.236 5.9720001 4294910720 1564024270 207209 201
-0.69300002 -0.30599999 6.2880001 4294904576 1564024270 156906 39
-0.65499997 -0.30000001 6.158 4294907392 1564024270 207770 200
-0.64300001 -0.29899999 6.1459999 4294907648 1564024270 190940 201
-0.63099998 -0.30000001 6.1420002 4294907648 1564024270 174110 200
-0.61900002 -0.30000001 6.1529999 4294907648 1564024270 156906 201
-0.60399997 -0.301 6.1500001 4294907648 1564024270 140263 200
-0.60299999 -0.301 6.152 4294907648 1564024270 207957 200
-0.58700001 -0.301 6.151 4294907648 1564024270 123994 201
-0.57099998 -0.30199999 6.1550002 4294907648 1564024270 140450 200
-0.55199999 -0.30199999 6.1469998 4294907904 1564024270 156906 200
-0.53299999 -0.30199999 6.151 4294907648 1564024270 174110 200
-0.51300001 -0.30199999 6.1479998 4294907904 1564024270 191127 200
-0.493 -0.303 6.1589999 4294907648 1564024270 207957 194
-0.46799999 -0.303 6.145 4294907904 1564024270 123994 193
-0.45199999 -0.30199999 6.1279998 4294908416 1564024270 207957 190
-0.44499999 -0.303 6.1389999 4294908160 1564024270 140450 105
-0.42899999 -0.303 6.138 4294908160 1564024270 191127 188
-0.40400001 -0.303 6.131 4294908416 1564024270 174110 184
-0.37900001 -0.303 6.132 4294908416 1564024270 156906 187
