# .PCD v0.7 - Point Cloud Data file format
VERSION 0.7
FIELDS x y z rgba time_sec time_usec intensity
SIZE 4 4 4 4 4 4 4
TYPE F F F U U U U
COUNT 1 1 1 1 1 1 1
WIDTH 786
HEIGHT 1
VIEWPOINT 0 0 0 1 0 0 0
POINTS 786
DATA ascii
0.889 -0.145 6.0279999 4294909696 1564024272 811602 205
0.90100002 -0.14399999 6.0339999 4294909440 1564024272 794490 205
0.91000003 -0.14399999 6.0300002 4294909440 1564024272 777936 205
0.91799998 -0.14300001 6.027 4294909696 1564024272 761754 206
0.92299998 -0.14300001 6.026 4294909696 1564024272 777936 205
0.92799997 -0.142 6.0229998 4294909696 1564024272 794490 204
0.93199998 -0.142 6.0170002 4294909696 1564024272 811602 203
0.93699998 -0.142 6.0310001 4294909440 1564024272 828714 203
0.93800002 -0.142 6.0289998 4294909440 1564024272 845454 203
-0.676 -0.184 6.1560001 4294907392 1564024272 778308 207
-0.67400002 -0.184 6.151 4294907648 1564024272 845826 205
-0.67199999 -0.184 6.1539998 4294907392 1564024272 829086 204
-0.66600001 -0.184 6.1420002 4294907648 1564024272 811974 205
-0.66000003 -0.184 6.145 4294907648 1564024272 794862 204
-0.65499997 -0.185 6.1570001 4294907392 1564024272 778308 204
-0.64600003 -0.185 6.1560001 4294907392 1564024272 762126 209
-0.63800001 -0.184 6.1479998 4294907648 1564024272 795048 206
-0.634 -0.184 6.1409998 4294907904 1564024272 845826 205
-0.62699997 -0.184 6.1469998 4294907648 1564024272 812160 206
-0.61500001 -0.185 6.1500001 4294907648 1564024272 829086 205
-0.60100001 -0.185 6.1490002 4294907648 1564024272 846012 205
-0.58600003 -0.185 6.151 4294907648 1564024272 762126 206
-0.57099998 -0.185 6.1500001 4294907648 1564024272 778308 206
-0.55400002 -0.185 6.1490002 4294907904 1564024272 795048 207
-0.53500003 -0.185 6.1459999 4294907904 1564024272 812160 206
-0.51700002 -0.185 6.1430001 4294907904 1564024272 829086 206
-0.49700001 -0.186 6.1469998 4294907904 1564024272 846012 205
-0.47499999 -0.186 6.1440001 4294908160 1564024272 762126 117
-0.45199999 -0.185 6.138 4294908160 1564024272 778308 129
-0.42899999 -0.185 6.1220002 4294908672 1564024272 795048 140
-0.405 -0.185 6.131 4294908416 1564024272 812160 148
-0.38100001 -0.185 6.1230001 4294908672 1564024272 829086 157
-0.35699999 -0.185 6.1329999 4294908416 1564024272 846012 169
-0.35499999 -0.185 6.1350002 4294908416 1564024272 795048 202
-0.329 -0.185 6.1240001 4294908672 1564024272 762126 180
-0.329 -0.185 6.1240001 4294908672 1564024272 778308 201
-0.303 -0.185 6.1230001 4294908672 1564024272 778308 189
-0.27599999 -0.184 6.1139998 4294908928 1564024272 795048 195
-0.248 -0.185 6.1199999 4294908928 1564024272 812160 201
-0.22 -0.184 6.1079998 4294909184 1564024272 829086 203
-0.192 -0.184 6.1079998 4294909184 1564024272 846012 203
-0.162 -0.184 6.1209998 4294908928 1564024272 762126 205
-0.134 -0.183 6.1100001 4294909184 1564024272 778308 206
-0.105 -0.183 6.1100001 4294909184 1564024272 794862 206
-0.074000001 -0.182 6.105 4294909184 1564024272 811974 207
-0.067000002 -0.182 6.1079998 4294909184 1564024272 829086 132
-0.037 -0.18099999 6.0999999 4294909440 1564024272 811974 209
-0.0070000002 -0.18099999 6.0999999 4294909440 1564024272 794862 209
0.024 -0.18000001 6.0929999 4294909440 1564024272 778308 210
0.045000002 -0.18000001 6.0900002 4294909440 1564024272 778308 212
0.075999998 -0.178 6.0619998 4294910208 1564024272 794862 213
0.075999998 -0.124 4.2950001 4294947072 1564024272 811974 215
0.109 -0.123 4.29 4294947328 1564024272 794862 210
0.189 -0.176 6.0630002 4294909952 1564024272 778308 212
0.23 -0.17299999 6.027 4294910720 1564024272 762126 213
0.26199999 -0.17299999 6.039 4294910464 1564024272 778308 151
0.28999999 -0.17200001 6.0570002 4294910208 1564024272 828900 161
0.32100001 -0.17200001 6.0560002 4294910208 1564024272 811974 210
0.37400001 -0.18099999 6.401 4294902784 1564024272 828900 68
0.30899999 -0.115 4.2490001 4294947840 1564024272 845826 194
0.398 -0.111 4.244 4294947840 1564024272 761940 175
0.41299999 -0.111 4.2490001 4294947840 1564024272 761940 161
0.43200001 -0.11 4.257 4294947584 1564024272 845640 168
0.47799999 -0.111 4.3319998 4294946048 1564024272 828900 210
0.69999999 -0.155 6.0170002 4294910208 1564024272 794676 210
0.72399998 -0.154 6.0289998 4294909952 1564024272 778122 210
0.741 -0.153 6.0219998 4294910208 1564024272 777936 211
0.76300001 -0.153 6.0300002 4294909952 1564024272 794676 209
0.76999998 -0.152 6.0190001 4294910208 1564024272 845640 209
0.79000002 -0.15099999 6.0310001 4294909952 1564024272 828714 209
0.815 -0.149 6.0100002 4294910208 1564024272 828714 208
0.83399999 -0.148 6.0180001 4294909952 1564024272 845454 208
0.86199999 -0.147 6.0320001 4294909696 1564024272 845454 208
0.87400001 -0.146 6.0229998 4294909696 1564024272 828714 206
0.88999999 -0.146 6.0300002 4294909696 1564024272 811602 205
0.898 -0.145 6.0190001 4294909696 1564024272 828714 205
0.90899998 -0.14399999 6.0229998 4294909696 1564024272 845454 205
0.91900003 -0.14399999 6.0339999 4294909440 1564024272 761754 208
0.92500001 -0.14399999 6.0300002 4294909440 1564024272 845454 205
0.92900002 -0.14300001 6.0219998 4294909696 1564024272 828714 205
0.93300003 -0.14300001 6.0240002 4294909696 1564024272 811602 205
0.93599999 -0.14300001 6.0240002 4294909696 1564024272 794490 204
-0.676 -0.186 6.1589999 4294907392 1564024272 795048 205
-0.67199999 -0.185 6.151 4294907648 1564024272 812160 204
-0.66799998 -0.185 6.1469998 4294907648 1564024272 829086 206
-0.662 -0.185 6.1479998 4294907648 1564024272 795048 205
-0.65499997 -0.185 6.1479998 4294907648 1564024272 762126 205
-0.64700001 -0.186 6.1469998 4294907648 1564024272 762126 208
-0.63599998 -0.186 6.1459999 4294907648 1564024272 846012 205
-0.62599999 -0.186 6.1440001 4294907648 1564024272 829086 206
-0.61400002 -0.186 6.1430001 4294907904 1564024272 812160 207
-0.59899998 -0.186 6.1350002 4294907904 1564024272 795048 205
-0.58499998 -0.186 6.1360002 4294907904 1564024272 778308 205
-0.56999999 -0.186 6.145 4294907904 1564024272 762126 208
-0.55299997 -0.18700001 6.1490002 4294907904 1564024272 846012 207
-0.53399998 -0.186 6.1389999 4294908160 1564024272 829086 209
-0.51599997 -0.18700001 6.1430001 4294907904 1564024272 812160 205
-0.49399999 -0.186 6.1329999 4294908160 1564024272 795048 205
-0.47299999 -0.186 6.1230001 4294908416 1564024272 778308 204
-0.45100001 -0.186 6.1300001 4294908416 1564024272 762126 206
-0.449 -0.18700001 6.1409998 4294908160 1564024272 778308 124
-0.428 -0.18700001 6.1290002 4294908416 1564024272 846012 205
-0.42500001 -0.186 6.125 4294908416 1564024272 795048 168
-0.40400001 -0.186 6.1240001 4294908672 1564024272 829086 203
-0.40099999 -0.186 6.1259999 4294908416 1564024272 812160 152
-0.38 -0.18700001 6.1300001 4294908416 1564024272 812160 203
-0.37599999 -0.186 6.118 4294908672 1564024272 829086 158
-0.35100001 -0.186 6.1220002 4294908672 1564024272 846012 167
-0.32499999 -0.186 6.1290002 4294908672 1564024272 762126 177
-0.30199999 -0.186 6.1269999 4294908672 1564024272 762126 202
-0.29800001 -0.186 6.1199999 4294908672 1564024272 778308 186
-0.27500001 -0.186 6.1209998 4294908672 1564024272 846012 197
-0.27200001 -0.186 6.119 4294908928 1564024272 795048 195
-0.24699999 -0.186 6.125 4294908672 1564024272 829086 196
-0.22 -0.185 6.1170001 4294908928 1564024272 812160 186
-0.189 -0.185 6.1149998 4294908928 1564024272 795048 173
-0.161 -0.185 6.1209998 4294908928 1564024272 778308 204
-0.132 -0.184 6.112 4294909184 1564024272 762126 206
-0.102 -0.184 6.1129999 4294909184 1564024272 846012 145
-0.072999999 -0.183 6.1040001 4294909184 1564024272 829086 132
-0.044 -0.183 6.1020002 4294909184 1564024272 829086 209
-0.014 -0.182 6.1030002 4294909184 1564024272 846012 209
0.017000001 -0.182 6.0929999 4294909440 1564024272 762126 211
0.048999999 -0.18099999 6.0929999 4294909440 1564024272 778308 212
0.056000002 -0.18000001 6.0840001 4294909696 1564024272 762126 212
0.088 -0.17900001 6.0580001 4294910208 1564024272 845826 213
0.083999999 -0.124 4.2870002 4294947328 1564024272 829086 215
0.097000003 -0.123 4.2670002 4294947840 1564024272 829086 215
0.17200001 -0.177 6.0570002 4294910208 1564024272 845826 212
0.206 -0.177 6.0689998 4294909952 1564024272 762126 213
0.22 -0.176 6.0640001 4294909952 1564024272 762126 214
0.25400001 -0.175 6.0650001 4294909952 1564024272 845826 145
0.28400001 -0.17399999 6.052 4294910208 1564024272 829086 159
0.29300001 -0.17299999 6.0339999 4294910720 1564024272 794862 209
0.32600001 -0.17200001 6.0510001 4294910208 1564024272 811974 208
0.37099999 -0.18099999 6.362 4294903552 1564024272 794862 64
0.287 -0.117 4.2659998 4294947584 1564024272 761940 164
0.30700001 -0.116 4.256 4294947840 1564024272 778122 175
0.39199999 -0.113 4.2490001 4294947840 1564024272 778122 172
0.41100001 -0.112 4.2589998 4294947584 1564024272 761940 166
0.47400001 -0.111 4.3130002 4294946304 1564024272 811788 205
0.69599998 -0.156 5.9920001 4294910976 1564024272 845640 210
0.722 -0.156 6.0240002 4294910208 1564024272 761940 213
0.74599999 -0.155 6.0310001 4294909952 1564024272 761940 211
0.76899999 -0.154 6.0359998 4294909696 1564024272 845640 210
0.78299999 -0.152 6.0219998 4294909952 1564024272 811788 209
0.80000001 -0.15099999 6.0149999 4294910208 1564024272 828714 209
0.80900002 -0.15099999 6.0289998 4294909952 1564024272 811788 209
0.82700002 -0.15000001 6.0310001 4294909696 1564024272 794676 208
0.84299999 -0.149 6.0240002 4294909952 1564024272 777936 208
0.85100001 -0.149 6.026 4294909696 1564024272 761754 210
0.86500001 -0.148 6.026 4294909696 1564024272 777936 206
0.87800002 -0.147 6.0219998 4294909696 1564024272 794490 205
0.88999999 -0.147 6.039 4294909440 1564024272 811602 206
0.898 -0.146 6.0219998 4294909696 1564024272 794490 206
0.90899998 -0.146 6.033 4294909440 1564024272 777936 205
0.917 -0.145 6.0289998 4294909440 1564024272 761754 206
0.92699999 -0.145 6.0409999 4294909184 1564024272 777936 204
0.93000001 -0.14399999 6.0250001 4294909696 1564024272 794490 204
0.93300003 -0.14399999 6.0219998 4294909696 1564024272 811602 204
0.93599999 -0.14399999 6.0240002 4294909696 1564024272 828714 204
0.93699998 -0.14399999 6.026 4294909440 1564024272 845454 203
-0.676 -0.186 6.1479998 4294907648 1564024272 778308 205
-0.67400002 -0.186 6.1440001 4294907648 1564024272 795048 205
-0.67199999 -0.186 6.1459999 4294907648 1564024272 829086 204
-0.67199999 -0.18700001 6.1560001 4294907392 1564024272 812160 205
-0.66900003 -0.18700001 6.158 4294907392 1564024272 812160 204
-0.66600001 -0.186 6.1420002 4294907648 1564024272 829086 206
-0.662 -0.18700001 6.1550002 4294907392 1564024272 846012 206
-0.65600002 -0.18700001 6.1620002 4294907392 1564024272 762126 206
-0.64700001 -0.18700001 6.158 4294907392 1564024272 778308 205
-0.63700002 -0.18700001 6.1479998 4294907648 1564024272 795048 206
-0.625 -0.18700001 6.1490002 4294907648 1564024272 812160 205
-0.61299998 -0.18700001 6.1459999 4294907648 1564024272 829086 206
-0.60000002 -0.18799999 6.152 4294907648 1564024272 846012 206
-0.583 -0.18700001 6.1409998 4294907904 1564024272 762126 206
-0.56800002 -0.18799999 6.1430001 4294907904 1564024272 778308 206
-0.55000001 -0.18700001 6.1350002 4294908160 1564024272 795048 207
-0.53200001 -0.18799999 6.1440001 4294907904 1564024272 812160 205
-0.51200002 -0.18799999 6.1329999 4294908160 1564024272 829086 103
-0.493 -0.18799999 6.1490002 4294907904 1564024272 846012 111
-0.47600001 -0.18799999 6.1300001 4294908416 1564024272 778308 204
-0.47099999 -0.18799999 6.1339998 4294908160 1564024272 762126 205
-0.454 -0.18799999 6.1300001 4294908416 1564024272 762312 205
-0.43099999 -0.18799999 6.1290002 4294908416 1564024272 846012 204
-0.40700001 -0.18799999 6.1259999 4294908416 1564024272 829086 203
-0.384 -0.18799999 6.132 4294908416 1564024272 812160 203
-0.35699999 -0.18799999 6.1269999 4294908672 1564024272 795048 202
-0.33199999 -0.18700001 6.118 4294908672 1564024272 778308 201
-0.30599999 -0.18799999 6.1290002 4294908672 1564024272 762312 201
-0.278 -0.18700001 6.1259999 4294908672 1564024272 846012 195
-0.25099999 -0.18700001 6.1220002 4294908672 1564024272 829086 191
-0.243 -0.18700001 6.1129999 4294908928 1564024272 812160 200
-0.223 -0.18700001 6.1230001 4294908672 1564024272 812160 185
-0.21600001 -0.18700001 6.1240001 4294908672 1564024272 829086 203
-0.18799999 -0.18700001 6.1269999 4294908672 1564024272 846012 203
-0.15700001 -0.186 6.1090002 4294909184 1564024272 762126 205
-0.12800001 -0.186 6.1139998 4294908928 1564024272 778308 205
-0.098999999 -0.185 6.1059999 4294909184 1564024272 795048 206
-0.068000004 -0.185 6.1020002 4294909184 1564024272 812160 207
-0.043000001 -0.184 6.0970001 4294909440 1564024272 812160 208
-0.012 -0.183 6.098 4294909440 1564024272 795048 208
0.017999999 -0.183 6.0900002 4294909440 1564024272 778308 210
0.050999999 -0.182 6.0900002 4294909440 1564024272 762126 212
0.079999998 -0.18099999 6.0700002 4294909952 1564024272 794862 212
0.078000002 -0.125 4.2810001 4294947584 1564024272 811974 215
0.101 -0.125 4.302 4294947072 1564024272 829086 215
0.105 -0.124 4.2740002 4294947584 1564024272 811974 215
0.185 -0.178 6.059 4294910208 1564024272 794862 213
0.21699999 -0.178 6.0710001 4294909952 1564024272 778308 213
0.235 -0.175 6.0139999 4294910976 1564024272 778308 212
0.26699999 -0.175 6.0279999 4294910720 1564024272 794862 159
0.315 -0.17399999 6.0560002 4294910208 1564024272 811974 210
0.345 -0.17200001 6.0110002 4294910976 1564024272 794862 157
0.37599999 -0.182 6.369 4294903552 1564024272 829086 74
0.30599999 -0.117 4.2420001 4294948096 1564024272 845826 180
0.40200001 -0.113 4.243 4294947840 1564024272 761940 173
0.43099999 -0.112 4.2600002 4294947584 1564024272 845640 171
0.48199999 -0.113 4.3449998 4294945536 1564024272 828900 211
0.69499999 -0.15800001 6.0089998 4294910464 1564024272 794676 210
0.72100002 -0.15700001 6.0380001 4294909952 1564024272 778122 211
0.74400002 -0.156 6.0219998 4294910208 1564024272 778122 210
0.76499999 -0.154 6.02 4294910208 1564024272 794676 210
0.78799999 -0.154 6.0289998 4294909952 1564024272 828900 210
0.80699998 -0.152 6.026 4294909952 1564024272 811788 210
0.81900001 -0.15099999 6.0180001 4294909952 1564024272 845640 209
0.83600003 -0.15000001 6.0159998 4294909952 1564024272 761754 211
0.85900003 -0.15000001 6.0320001 4294909696 1564024272 761754 208
0.87300003 -0.149 6.0279999 4294909696 1564024272 845640 207
0.88499999 -0.148 6.0279999 4294909696 1564024272 828714 206
0.89099997 -0.148 6.0250001 4294909696 1564024272 811602 206
0.89999998 -0.147 6.0190001 4294909696 1564024272 828714 206
0.91100001 -0.147 6.027 4294909696 1564024272 845454 205
0.91799998 -0.146 6.0190001 4294909696 1564024272 761754 210
0.92299998 -0.146 6.0209999 4294909696 1564024272 845454 205
0.92699999 -0.145 6.0110002 4294909952 1564024272 828714 205
0.93300003 -0.145 6.0219998 4294909696 1564024272 811602 205
0.93599999 -0.145 6.0209999 4294909696 1564024272 794490 205
-0.67699999 -0.18799999 6.1550002 4294907392 1564024272 778308 205
-0.67500001 -0.18799999 6.1529999 4294907392 1564024272 846012 204
-0.67299998 -0.18799999 6.151 4294907648 1564024272 829086 205
-0.66900003 -0.18799999 6.1539998 4294907392 1564024272 812160 204
-0.66299999 -0.18799999 6.1430001 4294907648 1564024272 795048 204
-0.65700001 -0.18799999 6.1500001 4294907648 1564024272 778308 204
-0.648 -0.18799999 6.1490002 4294907648 1564024272 762126 209
-0.63800001 -0.18799999 6.145 4294907648 1564024272 846012 208
-0.62800002 -0.18799999 6.1459999 4294907648 1564024272 829086 205
-0.616 -0.18799999 6.145 4294907648 1564024272 812160 205
-0.602 -0.189 6.1469998 4294907648 1564024272 795048 205
-0.58700001 -0.189 6.1409998 4294907904 1564024272 778308 205
-0.57200003 -0.189 6.1420002 4294907904 1564024272 762126 208
-0.55500001 -0.189 6.1420002 4294907904 1564024272 846012 206
-0.53600001 -0.189 6.1339998 4294908160 1564024272 829086 206
-0.51700002 -0.189 6.131 4294908160 1564024272 812160 205
-0.50999999 -0.189 6.1409998 4294908160 1564024272 829272 104
-0.49700001 -0.189 6.1420002 4294908160 1564024272 795048 205
-0.49000001 -0.189 6.138 4294908160 1564024272 846012 111
-0.46900001 -0.189 6.1389999 4294908160 1564024272 762312 204
-0.447 -0.19 6.1430001 4294908160 1564024272 778494 127
-0.42300001 -0.189 6.1290002 4294908416 1564024272 795048 144
-0.398 -0.189 6.1290002 4294908416 1564024272 812160 146
-0.37400001 -0.189 6.132 4294908416 1564024272 829272 168
-0.34900001 -0.189 6.1269999 4294908672 1564024272 846012 165
-0.322 -0.189 6.1279998 4294908672 1564024272 762312 182
-0.296 -0.189 6.1230001 4294908672 1564024272 778494 186
-0.26800001 -0.18799999 6.1139998 4294908928 1564024272 795048 193
-0.23999999 -0.18799999 6.118 4294908928 1564024272 812160 200
-0.212 -0.18799999 6.1259999 4294908672 1564024272 829272 203
-0.19400001 -0.18799999 6.1199999 4294908928 1564024272 795048 174
-0.184 -0.18799999 6.1129999 4294908928 1564024272 846012 203
-0.16500001 -0.18799999 6.1160002 4294908928 1564024272 778308 171
-0.13600001 -0.18700001 6.112 4294909184 1564024272 762312 205
-0.105 -0.18700001 6.112 4294909184 1564024272 846012 206
-0.075999998 -0.186 6.1069999 4294909184 1564024272 829086 207
-0.046 -0.186 6.105 4294909184 1564024272 812160 208
-0.039000001 -0.185 6.105 4294909184 1564024272 829086 208
-0.0089999996 -0.185 6.105 4294909184 1564024272 846012 208
0.023 -0.184 6.0900002 4294909440 1564024272 762126 211
0.054000001 -0.183 6.079 4294909696 1564024272 778308 212
0.082999997 -0.182 6.0669999 4294909952 1564024272 846012 213
0.079999998 -0.126 4.2919998 4294947328 1564024272 829086 215
0.101 -0.125 4.2620001 4294947840 1564024272 812160 215
0.177 -0.18000001 6.0669999 4294909952 1564024272 845826 211
0.20900001 -0.17900001 6.0580001 4294910208 1564024272 762126 213
0.248 -0.177 6.0539999 4294910208 1564024272 762126 145
0.28 -0.176 6.052 4294910208 1564024272 845826 157
0.301 -0.176 6.0609999 4294909952 1564024272 811974 210
0.33199999 -0.175 6.052 4294910208 1564024272 829086 178
0.28999999 -0.119 4.2659998 4294947584 1564024272 762126 171
0.308 -0.117 4.2350001 4294948352 1564024272 778308 171
0.38800001 -0.114 4.244 4294947840 1564024272 778122 168
0.40700001 -0.114 4.25 4294947840 1564024272 761940 171
0.472 -0.113 4.3179998 4294946304 1564024272 811788 202
0.69999999 -0.15800001 6.0040002 4294910720 1564024272 845640 212
0.72500002 -0.15700001 6.0170002 4294910208 1564024272 761940 214
0.74299997 -0.15700001 6.0320001 4294909952 1564024272 761940 212
0.764 -0.156 6.0240002 4294909952 1564024272 845640 211
0.78500003 -0.154 6.0190001 4294910208 1564024272 811788 210
0.80400002 -0.153 6.0149999 4294910208 1564024272 828900 210
0.82300001 -0.152 6.02 4294909952 1564024272 794676 209
0.84100002 -0.152 6.027 4294909696 1564024272 778122 209
0.852 -0.15099999 6.0180001 4294909952 1564024272 777936 208
0.866 -0.15000001 6.0190001 4294909952 1564024272 794676 207
0.87900001 -0.149 6.013 4294909952 1564024272 811788 206
0.89700001 -0.149 6.0289998 4294909696 1564024272 811788 206
0.90700001 -0.148 6.0279999 4294909696 1564024272 794676 206
0.91500002 -0.147 6.027 4294909696 1564024272 777936 206
0.92199999 -0.147 6.0229998 4294909696 1564024272 761754 206
0.92400002 -0.147 6.0180001 4294909696 1564024272 777936 205
0.92900002 -0.146 6.0149999 4294909696 1564024272 794490 204
0.93400002 -0.146 6.0240002 4294909696 1564024272 811602 204
0.935 -0.146 6.0190001 4294909696 1564024272 828714 204
-0.67400002 -0.189 6.1479998 4294907648 1564024272 795048 205
-0.67199999 -0.189 6.1570001 4294907392 1564024272 812160 205
-0.66799998 -0.189 6.158 4294907392 1564024272 829272 204
-0.66100001 -0.189 6.1500001 4294907648 1564024272 846012 206
-0.65399998 -0.189 6.151 4294907648 1564024272 762312 205
-0.64499998 -0.19 6.1539998 4294907648 1564024272 778494 205
-0.63599998 -0.19 6.1550002 4294907648 1564024272 795048 205
-0.62300003 -0.19 6.1440001 4294907648 1564024272 812160 205
-0.611 -0.19 6.1500001 4294907648 1564024272 829272 205
-0.59799999 -0.19 6.152 4294907648 1564024272 846012 205
-0.58200002 -0.19 6.151 4294907648 1564024272 762312 206
-0.56599998 -0.19 6.1479998 4294907904 1564024272 778494 206
-0.54900002 -0.19 6.1440001 4294907904 1564024272 795048 206
-0.53899997 -0.19 6.1360002 4294908160 1564024272 829272 206
-0.52999997 -0.191 6.1459999 4294907904 1564024272 812160 205
-0.52100003 -0.19 6.1399999 4294908160 1564024272 812160 205
-0.50099999 -0.191 6.1409998 4294908160 1564024272 795048 206
-0.47999999 -0.191 6.1409998 4294908160 1564024272 778494 204
-0.458 -0.19 6.131 4294908416 1564024272 762312 205
-0.435 -0.19 6.1279998 4294908416 1564024272 846012 204
-0.41100001 -0.19 6.1279998 4294908416 1564024272 829272 204
-0.38699999 -0.19 6.1240001 4294908672 1564024272 812160 203
-0.36199999 -0.191 6.132 4294908416 1564024272 795048 201
-0.336 -0.19 6.1230001 4294908672 1564024272 778494 201
-0.31 -0.19 6.119 4294908672 1564024272 762312 201
-0.28200001 -0.19 6.118 4294908928 1564024272 846012 195
-0.255 -0.189 6.1100001 4294908928 1564024272 829272 189
-0.227 -0.189 6.1090002 4294909184 1564024272 812160 181
-0.198 -0.189 6.1149998 4294908928 1564024272 795048 174
-0.17 -0.189 6.1199999 4294908928 1564024272 778494 165
-0.154 -0.189 6.1139998 4294908928 1564024272 762312 204
-0.125 -0.18799999 6.1059999 4294909184 1564024272 778494 205
-0.096000001 -0.18799999 6.1079998 4294909184 1564024272 795048 206
-0.064999998 -0.18700001 6.1040001 4294909184 1564024272 812160 207
-0.035 -0.186 6.0949998 4294909440 1564024272 829272 208
-0.015 -0.186 6.105 4294909184 1564024272 795048 208
0.015 -0.185 6.0929999 4294909440 1564024272 778494 210
0.046 -0.185 6.0949998 4294909440 1564024272 762312 212
0.079000004 -0.183 6.072 4294909952 1564024272 846012 212
0.085000001 -0.182 6.0310001 4294910720 1564024272 795048 212
0.082000002 -0.126 4.2690001 4294947840 1564024272 812160 215
0.105 -0.127 4.3270001 4294946560 1564024272 829086 214
0.17900001 -0.18000001 6.0469999 4294910464 1564024272 795048 212
0.211 -0.18000001 6.0549998 4294910208 1564024272 778308 213
0.237 -0.177 5.9809999 4294911744 1564024272 778308 212
0.271 -0.177 6.0370002 4294910464 1564024272 794862 158
0.31099999 -0.176 6.0419998 4294910464 1564024272 829086 210
0.34099999 -0.175 6.0370002 4294910464 1564024272 811974 203
0.38 -0.184 6.3379998 4294904064 1564024272 845826 72
0.303 -0.119 4.2540002 4294947840 1564024272 845826 183
0.405 -0.114 4.243 4294947840 1564024272 761940 177
0.428 -0.114 4.2600002 4294947584 1564024272 845826 183
0.461 -0.114 4.2930002 4294946816 1564024272 811788 182
0.49200001 -0.116 4.4039998 4294944512 1564024272 828900 214
0.68800002 -0.15899999 5.9699998 4294911232 1564024272 794676 211
0.71799999 -0.15899999 6.0320001 4294909952 1564024272 778122 212
0.74699998 -0.15800001 6.0209999 4294910208 1564024272 778122 212
0.76800001 -0.156 6.0190001 4294910208 1564024272 794676 210
0.78500003 -0.156 6.0339999 4294909696 1564024272 828900 211
0.80299997 -0.155 6.0289998 4294909952 1564024272 811788 211
0.82300001 -0.154 6.0219998 4294909952 1564024272 845640 209
0.83999997 -0.153 6.0250001 4294909952 1564024272 761940 211
0.85799998 -0.152 6.0370002 4294909440 1564024272 761940 209
0.87199998 -0.15099999 6.0320001 4294909696 1564024272 845640 207
0.88499999 -0.15099999 6.033 4294909440 1564024272 828900 207
0.89200002 -0.15000001 6.0229998 4294909696 1564024272 828714 206
0.903 -0.149 6.0229998 4294909696 1564024272 845640 206
0.91299999 -0.149 6.0320001 4294909440 1564024272 761754 210
0.92000002 -0.148 6.0279999 4294909440 1564024272 777936 206
0.92799997 -0.148 6.0219998 4294909696 1564024272 845640 205
0.93199998 -0.147 6.0219998 4294909696 1564024272 828714 205
0.93599999 -0.147 6.026 4294909440 1564024272 811788 205
-0.67799997 -0.191 6.1609998 4294907392 1564024272 778494 204
-0.676 -0.19 6.151 4294907648 1564024272 846012 204
-0.67299998 -0.19 6.1479998 4294907648 1564024272 829272 205
-0.66900003 -0.19 6.1459999 4294907648 1564024272 812160 204
-0.66500002 -0.191 6.1560001 4294907392 1564024272 795048 205
-0.65799999 -0.19 6.1430001 4294907648 1564024272 778494 204
-0.64999998 -0.191 6.1490002 4294907648 1564024272 762312 208
-0.64099997 -0.191 6.1500001 4294907648 1564024272 846012 205
-0.63 -0.191 6.1479998 4294907648 1564024272 829272 206
-0.61799997 -0.191 6.1469998 4294907648 1564024272 812160 205
-0.60399997 -0.191 6.1409998 4294907904 1564024272 795048 205
-0.58999997 -0.191 6.138 4294907904 1564024272 778494 205
-0.57599998 -0.192 6.1539998 4294907648 1564024272 762312 209
-0.56300002 -0.191 6.1430001 4294907904 1564024272 778494 206
-0.55699998 -0.191 6.1409998 4294907904 1564024272 846012 206
-0.546 -0.192 6.1469998 4294907904 1564024272 795048 206
-0.52700001 -0.192 6.1490002 4294907904 1564024272 812160 205
-0.50700003 -0.192 6.1459999 4294907904 1564024272 829272 206
-0.486 -0.192 6.138 4294908160 1564024272 846012 112
-0.46399999 -0.192 6.132 4294908416 1564024272 762312 117
-0.442 -0.192 6.1389999 4294908160 1564024272 778494 127
-0.419 -0.192 6.1329999 4294908416 1564024272 795048 142
-0.39500001 -0.192 6.1420002 4294908160 1564024272 812160 156
-0.37 -0.192 6.132 4294908416 1564024272 829272 167
-0.345 -0.192 6.132 4294908416 1564024272 846012 163
-0.317 -0.191 6.1209998 4294908672 1564024272 762312 176
-0.28999999 -0.191 6.118 4294908928 1564024272 778494 191
-0.264 -0.191 6.119 4294908928 1564024272 795048 200
-0.235 -0.191 6.1110001 4294908928 1564024272 812160 200
-0.207 -0.19 6.112 4294908928 1564024272 829272 202
-0.17900001 -0.19 6.1100001 4294909184 1564024272 846012 204
-0.149 -0.19 6.1110001 4294909184 1564024272 762312 204
-0.142 -0.19 6.1079998 4294909184 1564024272 762312 159
-0.111 -0.189 6.1030002 4294909184 1564024272 846012 205
-0.082000002 -0.189 6.1100001 4294909184 1564024272 829272 131
-0.052000001 -0.189 6.1129999 4294909184 1564024272 812160 124
-0.021 -0.18799999 6.1020002 4294909440 1564024272 795048 115
-0.0049999999 -0.18700001 6.0900002 4294909440 1564024272 846012 208
0.027000001 -0.18700001 6.1020002 4294909440 1564024272 762312 211
0.057999998 -0.185 6.0770001 4294909952 1564024272 778494 211
0.090000004 -0.185 6.0830002 4294909696 1564024272 795048 77
0.077 -0.12899999 4.3130002 4294946816 1564024272 829086 210
0.097999997 -0.126 4.2579999 4294947840 1564024272 812160 214
0.183 -0.182 6.0689998 4294909952 1564024272 846012 211
0.214 -0.18099999 6.053 4294910208 1564024272 762126 213
0.241 -0.17900001 6.0149999 4294910976 1564024272 762126 212
0.193 -0.126 4.329 4294946304 1564024272 846012 211
0.30500001 -0.178 6.0560002 4294910208 1564024272 811974 210
0.30500001 -0.178 6.0419998 4294910464 1564024272 829086 209
0.33500001 -0.177 6.053 4294910208 1564024272 829086 204
0.29300001 -0.12 4.2610002 4294947840 1564024272 778308 172
0.31099999 -0.119 4.2280002 4294948352 1564024272 794862 167
0.322 -0.118 4.2319999 4294948352 1564024272 829086 161
0.38699999 -0.116 4.2329998 4294948096 1564024272 845826 164
0.40400001 -0.115 4.2449999 4294947840 1564024272 762126 175
0.42500001 -0.115 4.2550001 4294947584 1564024272 778122 167
0.46599999 -0.114 4.2930002 4294946816 1564024272 811974 183
0.50800002 -0.119 4.4970002 4294942464 1564024272 794862 213
0.704 -0.16 6.0079999 4294910464 1564024272 845640 211
0.73000002 -0.16 6.0229998 4294910208 1564024272 761940 215
0.74000001 -0.15899999 6.027 4294909952 1564024272 761940 214
0.76200002 -0.15800001 6.0289998 4294909952 1564024272 845640 211
0.78799999 -0.156 6.0139999 4294910208 1564024272 811788 210
0.80800003 -0.156 6.0310001 4294909696 1564024272 828900 210
0.82300001 -0.155 6.0359998 4294909696 1564024272 794676 210
0.83999997 -0.154 6.0380001 4294909440 1564024272 778122 210
0.85500002 -0.153 6.0219998 4294909952 1564024272 778122 208
0.86900002 -0.152 6.0250001 4294909696 1564024272 794676 207
0.88300002 -0.15099999 6.026 4294909696 1564024272 811788 206
0.89600003 -0.15099999 6.0320001 4294909440 1564024272 811788 208
0.90399998 -0.15000001 6.0159998 4294909952 1564024272 794676 207
0.91399997 -0.15000001 6.0240002 4294909696 1564024272 778122 206
0.921 -0.149 6.0229998 4294909696 1564024272 761940 207
0.92699999 -0.149 6.0300002 4294909440 1564024272 794676 205
0.93099999 -0.149 6.0240002 4294909696 1564024272 811788 205
0.93400002 -0.148 6.0190001 4294909696 1564024272 828714 205
0.93800002 -0.149 6.0380001 4294909440 1564024272 845640 205
-0.676 -0.192 6.1529999 4294907392 1564024272 778494 205
-0.67400002 -0.192 6.151 4294907648 1564024272 795048 205
-0.67199999 -0.192 6.1570001 4294907392 1564024272 812160 205
-0.667 -0.192 6.151 4294907648 1564024272 829272 205
-0.66100001 -0.192 6.1560001 4294907392 1564024272 846012 205
-0.653 -0.192 6.1529999 4294907648 1564024272 762312 205
-0.64300001 -0.192 6.1420002 4294907648 1564024272 778494 205
-0.634 -0.192 6.1500001 4294907648 1564024272 795048 205
-0.62300003 -0.193 6.1560001 4294907648 1564024272 812160 205
-0.61000001 -0.193 6.1500001 4294907648 1564024272 829272 205
-0.59500003 -0.193 6.1490002 4294907648 1564024272 846012 205
-0.57999998 -0.193 6.151 4294907648 1564024272 762312 206
-0.57800001 -0.193 6.1440001 4294907904 1564024272 762312 208
-0.56199998 -0.193 6.1479998 4294907904 1564024272 846012 206
-0.542 -0.193 6.1329999 4294908160 1564024272 829272 206
-0.52499998 -0.193 6.1420002 4294907904 1564024272 812160 205
-0.50300002 -0.193 6.1300001 4294908416 1564024272 795048 205
-0.484 -0.193 6.1399999 4294908160 1564024272 778494 204
-0.461 -0.193 6.1209998 4294908416 1564024272 762312 205
-0.43900001 -0.193 6.132 4294908416 1564024272 846012 204
-0.41499999 -0.193 6.125 4294908416 1564024272 829272 204
-0.391 -0.193 6.1240001 4294908672 1564024272 812160 203
-0.366 -0.193 6.1339998 4294908416 1564024272 795048 157
-0.34099999 -0.193 6.132 4294908416 1564024272 778494 201
-0.315 -0.193 6.1259999 4294908672 1564024272 762312 201
-0.287 -0.192 6.1129999 4294908928 1564024272 846012 194
-0.25999999 -0.192 6.119 4294908928 1564024272 829272 188
-0.233 -0.192 6.1199999 4294908928 1564024272 812160 182
-0.204 -0.192 6.1139998 4294908928 1564024272 795048 185
-0.175 -0.192 6.1129999 4294908928 1564024272 778494 203
-0.146 -0.191 6.1110001 4294909184 1564024272 762312 204
-0.12 -0.191 6.112 4294909184 1564024272 778494 205
-0.116 -0.191 6.1059999 4294909184 1564024272 846012 157
-0.090000004 -0.19 6.1079998 4294909184 1564024272 795048 206
-0.059 -0.19 6.1079998 4294909184 1564024272 812160 207
-0.028999999 -0.189 6.0970001 4294909440 1564024272 829272 207
0 -0.189 6.1020002 4294909440 1564024272 846012 208
0.0089999996 -0.18799999 6.1040001 4294909184 1564024272 778494 209
0.041000001 -0.18700001 6.0900002 4294909440 1564024272 762312 212
0.074000001 -0.18700001 6.085 4294909696 1564024272 846012 212
0.085000001 -0.12800001 4.2789998 4294947584 1564024272 812160 214
0.109 -0.13 4.349 4294946048 1564024272 829272 210
0.17399999 -0.183 6.033 4294910720 1564024272 795048 211
0.207 -0.183 6.0619998 4294910208 1564024272 778494 213
0.237 -0.18099999 6.0289998 4294910720 1564024272 762312 212
0.245 -0.18099999 6.039 4294910464 1564024272 778308 146
0.27700001 -0.18000001 6.0380001 4294910464 1564024272 795048 160
0.31 -0.17900001 6.059 4294910208 1564024272 812160 209
0.336 -0.178 6.0549998 4294910208 1564024272 812160 208
0.382 -0.185 6.3119998 4294904576 1564024272 845826 73
0.38100001 -0.183 6.2540002 4294905856 1564024272 795048 91
0.30000001 -0.121 4.2540002 4294947840 1564024272 762126 182
0.31999999 -0.119 4.237 4294948096 1564024272 845826 163
0.40799999 -0.116 4.25 4294947840 1564024272 762126 171
0.42500001 -0.116 4.2550001 4294947584 1564024272 845826 180
0.46599999 -0.115 4.3049998 4294946560 1564024272 811974 203
0.50300002 -0.119 4.474 4294942976 1564024272 828900 213
0.71399999 -0.162 6.0300002 4294909952 1564024272 778122 212
0.74900001 -0.15899999 6.0100002 4294910464 1564024272 778122 212
0.77100003 -0.15899999 6.0209999 4294910208 1564024272 794676 211
0.78200001 -0.15800001 6.0289998 4294909952 1564024272 828900 211
0.801 -0.15700001 6.0320001 4294909696 1564024272 811788 211
0.82499999 -0.156 6.0240002 4294909952 1564024272 845640 210
0.84200001 -0.155 6.0190001 4294909952 1564024272 761940 213
0.85399997 -0.154 6.0250001 4294909696 1564024272 761940 210
0.86799997 -0.153 6.026 4294909696 1564024272 845640 208
0.88200003 -0.153 6.033 4294909440 1564024272 828900 207
0.89300001 -0.152 6.02 4294909696 1564024272 828900 206
0.90600002 -0.15099999 6.0279999 4294909696 1564024272 845640 206
0.912 -0.15099999 6.0170002 4294909696 1564024272 761940 209
0.921 -0.15000001 6.0229998 4294909696 1564024272 778122 206
0.92799997 -0.15000001 6.0219998 4294909696 1564024272 845640 207
0.93199998 -0.15000001 6.0240002 4294909696 1564024272 828900 206
0.935 -0.149 6.0209999 4294909696 1564024272 811788 206
-0.67699999 -0.193 6.1550002 4294907392 1564024272 846012 204
-0.67400002 -0.193 6.1500001 4294907648 1564024272 829272 204
-0.67199999 -0.193 6.1589999 4294907392 1564024272 812160 204
-0.66600001 -0.193 6.1539998 4294907392 1564024272 795048 204
-0.65899998 -0.193 6.1500001 4294907648 1564024272 778494 204
-0.653 -0.193 6.1550002 4294907392 1564024272 762312 210
-0.64200002 -0.193 6.1420002 4294907648 1564024272 846012 205
-0.63200003 -0.193 6.1409998 4294907904 1564024272 829272 205
-0.62 -0.193 6.1420002 4294907904 1564024272 812160 205
-0.60699999 -0.19400001 6.1409998 4294907904 1564024272 795048 205
-0.59299999 -0.19400001 6.145 4294907904 1564024272 778494 206
-0.57800001 -0.19400001 6.1490002 4294907648 1564024272 762312 206
-0.56099999 -0.19400001 6.1409998 4294907904 1564024272 778494 206
-0.54400003 -0.19400001 6.145 4294907904 1564024272 795234 206
-0.52499998 -0.19499999 6.151 4294907904 1564024272 812346 104
-0.505 -0.19499999 6.1500001 4294907904 1564024272 829272 107
-0.484 -0.19499999 6.145 4294907904 1564024272 846198 204
-0.461 -0.19400001 6.1350002 4294908160 1564024272 762312 204
-0.43900001 -0.19499999 6.1389999 4294908160 1564024272 778494 127
-0.41600001 -0.19400001 6.1290002 4294908416 1564024272 795234 144
-0.38999999 -0.19400001 6.1220002 4294908672 1564024272 812346 150
-0.366 -0.19400001 6.1300001 4294908416 1564024272 829272 163
-0.34099999 -0.19400001 6.132 4294908416 1564024272 846198 163
-0.31400001 -0.19400001 6.1240001 4294908672 1564024272 762312 183
-0.28799999 -0.19400001 6.1230001 4294908672 1564024272 778494 189
-0.25999999 -0.19400001 6.119 4294908928 1564024272 795048 192
-0.23199999 -0.19400001 6.1199999 4294908928 1564024272 812346 201
-0.204 -0.193 6.1209998 4294908928 1564024272 829272 202
-0.175 -0.193 6.1059999 4294909184 1564024272 846198 203
-0.145 -0.193 6.118 4294908928 1564024272 762312 204
-0.116 -0.192 6.1139998 4294908928 1564024272 778494 205
-0.086999997 -0.191 6.092 4294909440 1564024272 829272 206
-0.057 -0.191 6.0970001 4294909440 1564024272 812160 125
-0.026000001 -0.19 6.0949998 4294909440 1564024272 795048 207
0.003 -0.19 6.0970001 4294909440 1564024272 778494 208
0.032000002 -0.189 6.0949998 4294909440 1564024272 762312 210
0.064000003 -0.18799999 6.079 4294909696 1564024272 778494 211
0.067000002 -0.131 4.3319998 4294946304 1564024272 795048 213
0.074000001 -0.131 4.3330002 4294946304 1564024272 829272 211
0.093999997 -0.12899999 4.2709999 4294947584 1564024272 812160 214
0.168 -0.183 5.994 4294911488 1564024272 795048 211
0.186 -0.185 6.0640001 4294909952 1564024272 846012 211
0.219 -0.183 6.0599999 4294910208 1564024272 762312 213
0.25 -0.182 6.0409999 4294910464 1564024272 778494 151
0.19 -0.127 4.3140001 4294946816 1564024272 846012 211
0.301 -0.18000001 6.0289998 4294910720 1564024272 829086 209
0.34 -0.17900001 6.0430002 4294910464 1564024272 829086 190
0.38699999 -0.186 6.296 4294905088 1564024272 846012 70
0.296 -0.122 4.2649999 4294947584 1564024272 778308 176
0.315 -0.121 4.2389998 4294948096 1564024272 794862 161
0.39199999 -0.117 4.2389998 4294948096 1564024272 762126 179
0.403 -0.118 4.2620001 4294947584 1564024272 762126 178
0.421 -0.116 4.2529998 4294947584 1564024272 845826 183
0.42699999 -0.116 4.25 4294947840 1564024272 778308 172
0.46399999 -0.116 4.2880001 4294946816 1564024272 811974 162
0.49900001 -0.119 4.4400001 4294943744 1564024272 794862 215
0.70899999 -0.163 6.0139999 4294910464 1564024272 845826 212
0.73299998 -0.162 6.0180001 4294910208 1564024272 761940 216
0.736 -0.162 6.027 4294909952 1564024272 761940 215
0.75700003 -0.16 6.0219998 4294910208 1564024272 845826 212
0.792 -0.15800001 6.0159998 4294910208 1564024272 811788 211
0.81 -0.15700001 6.0139999 4294910208 1564024272 828900 211
0.81900001 -0.15700001 6.0240002 4294909952 1564024272 794676 211
0.83700001 -0.15700001 6.0339999 4294909696 1564024272 778122 210
0.85600001 -0.155 6.0170002 4294909952 1564024272 778122 209
0.87099999 -0.154 6.0229998 4294909696 1564024272 794676 209
0.88300002 -0.153 6.0139999 4294909952 1564024272 811788 208
0.89399999 -0.153 6.0289998 4294909696 1564024272 811788 207
0.90399998 -0.152 6.0229998 4294909696 1564024272 794676 208
0.912 -0.152 6.0219998 4294909696 1564024272 778122 207
0.921 -0.15099999 6.0279999 4294909696 1564024272 761940 207
0.92500001 -0.15099999 6.0139999 4294909952 1564024272 794676 206
0.93099999 -0.15099999 6.0209999 4294909696 1564024272 811788 205
0.93599999 -0.15099999 6.026 4294909696 1564024272 828900 205
0.935 -0.15000001 6.0139999 4294909696 1564024272 845640 205
-0.67699999 -0.19400001 6.1550002 4294907392 1564024272 778494 204
-0.67500001 -0.19400001 6.1560001 4294907392 1564024272 795234 205
-0.671 -0.19400001 6.151 4294907648 1564024272 812346 204
-0.66600001 -0.19400001 6.1490002 4294907648 1564024272 829272 205
-0.65899998 -0.19400001 6.1500001 4294907648 1564024272 846198 205
-0.65200001 -0.19499999 6.1589999 4294907392 1564024272 762312 205
-0.64200002 -0.19499999 6.1469998 4294907648 1564024272 778494 205
-0.634 -0.19499999 6.1589999 4294907392 1564024272 795234 205
-0.62199998 -0.19499999 6.1469998 4294907648 1564024272 812346 204
-0.62099999 -0.19499999 6.1539998 4294907648 1564024272 812346 205
-0.61000001 -0.19499999 6.1500001 4294907648 1564024272 795234 205
-0.59500003 -0.19499999 6.1490002 4294907648 1564024272 778494 206
-0.57999998 -0.19499999 6.1459999 4294907904 1564024272 762312 209
-0.56199998 -0.19499999 6.132 4294908160 1564024272 846198 206
-0.546 -0.19499999 6.1399999 4294907904 1564024272 829272 206
-0.52700001 -0.19499999 6.1389999 4294908160 1564024272 812346 205
-0.50599998 -0.19499999 6.132 4294908160 1564024272 795234 205
-0.48699999 -0.19599999 6.1370001 4294908160 1564024272 778494 204
-0.46599999 -0.19599999 6.1370001 4294908160 1564024272 762312 205
-0.442 -0.19599999 6.132 4294908416 1564024272 846198 204
-0.41999999 -0.19599999 6.1350002 4294908416 1564024272 829272 203
-0.39500001 -0.19599999 6.1279998 4294908416 1564024272 812346 203
-0.36899999 -0.19499999 6.1160002 4294908672 1564024272 795234 201
-0.345 -0.19599999 6.1269999 4294908672 1564024272 778494 201
-0.31900001 -0.19599999 6.131 4294908416 1564024272 762312 201
-0.292 -0.19499999 6.125 4294908672 1564024272 846198 196
-0.264 -0.19499999 6.1240001 4294908672 1564024272 829272 189
-0.237 -0.19499999 6.1220002 4294908672 1564024272 812346 181
-0.207 -0.19499999 6.1259999 4294908672 1564024272 795234 174
-0.17900001 -0.19400001 6.1220002 4294908928 1564024272 778494 166
-0.15099999 -0.19400001 6.1160002 4294908928 1564024272 762312 162
-0.119 -0.193 6.1030002 4294909184 1564024272 846198 151
-0.090000004 -0.193 6.1009998 4294909440 1564024272 829272 205
-0.086999997 -0.193 6.1100001 4294909184 1564024272 795048 206
-0.056000002 -0.192 6.0970001 4294909440 1564024272 812346 206
-0.026000001 -0.192 6.1079998 4294909184 1564024272 829272 207
0.0040000002 -0.191 6.1020002 4294909440 1564024272 846198 208
0.035 -0.19 6.0869999 4294909696 1564024272 762312 211
0.068000004 -0.189 6.0869999 4294909696 1564024272 846012 211
0.07 -0.132 4.3249998 4294946560 1564024272 829272 212
0.089000002 -0.13 4.2709999 4294947584 1564024272 812160 213
0.16 -0.186 6.0560002 4294910208 1564024272 829272 111
0.192 -0.186 6.0669999 4294909952 1564024272 846012 211
0.20100001 -0.185 6.0599999 4294910208 1564024272 778494 212
0.23199999 -0.184 6.0450001 4294910464 1564024272 762312 211
0.28200001 -0.182 6.0469999 4294910464 1564024272 795048 161
0.31400001 -0.182 6.0560002 4294910208 1564024272 812160 208
0.333 -0.18099999 6.0599999 4294909952 1564024272 812160 207
0.38100001 -0.18799999 6.3070002 4294904832 1564024272 795048 72
0.29499999 -0.122 4.244 4294948096 1564024272 762126 173
0.31600001 -0.121 4.2340002 4294948352 1564024272 846012 170
0.41100001 -0.117 4.244 4294947840 1564024272 778308 183
0.46900001 -0.117 4.309 4294946304 1564024272 811974 207
0.69300002 -0.16599999 6.046 4294909696 1564024272 829086 104
0.71100003 -0.16500001 6.0370002 4294909952 1564024272 778308 213
0.73299998 -0.163 6.027 4294909952 1564024272 762126 215
0.75400001 -0.162 6.0149999 4294910208 1564024272 778122 212
0.77399999 -0.161 6.0180001 4294910208 1564024272 794862 211
0.778 -0.161 6.0250001 4294909952 1564024272 828900 212
0.79699999 -0.16 6.0250001 4294909952 1564024272 811974 212
0.82700002 -0.15800001 6.0209999 4294909952 1564024272 845640 211
0.84500003 -0.15700001 6.026 4294909696 1564024272 761940 212
0.85299999 -0.15700001 6.0349998 4294909696 1564024272 761940 210
0.86799997 -0.156 6.0370002 4294909440 1564024272 845640 209
0.87900001 -0.155 6.0209999 4294909696 1564024272 828900 208
0.89600003 -0.154 6.0240002 4294909696 1564024272 828900 208
0.90600002 -0.153 6.0250001 4294909696 1564024272 845640 207
0.91399997 -0.153 6.0190001 4294909696 1564024272 761940 210
0.921 -0.152 6.0180001 4294909696 1564024272 778122 206
0.926 -0.152 6.0219998 4294909696 1564024272 845640 206
0.93199998 -0.152 6.0240002 4294909696 1564024272 828900 206
0.93599999 -0.152 6.0310001 4294909440 1564024272 811788 208
-0.67699999 -0.19599999 6.1589999 4294907392 1564024272 846198 204
-0.67500001 -0.19599999 6.1560001 4294907392 1564024272 829272 204
-0.67299998 -0.19599999 6.1570001 4294907392 1564024272 812346 204
-0.66600001 -0.19599999 6.1490002 4294907648 1564024272 795234 205
-0.66100001 -0.19599999 6.158 4294907392 1564024272 778494 204
-0.65399998 -0.19599999 6.1560001 4294907392 1564024272 762312 208
-0.64399999 -0.19599999 6.151 4294907648 1564024272 846198 204
-0.63999999 -0.19599999 6.1440001 4294907648 1564024272 778494 205
-0.63300002 -0.19599999 6.145 4294907648 1564024272 829272 206
-0.63099998 -0.19599999 6.1529999 4294907648 1564024272 795234 206
-0.62 -0.197 6.158 4294907392 1564024272 812346 205
-0.60500002 -0.19599999 6.1479998 4294907648 1564024272 829272 205
-0.59200001 -0.197 6.1539998 4294907648 1564024272 846198 205
-0.57499999 -0.197 6.1459999 4294907904 1564024272 762312 206
-0.55900002 -0.197 6.1500001 4294907648 1564024272 778494 206
-0.542 -0.197 6.1560001 4294907648 1564024272 795234 205
-0.52100003 -0.197 6.1440001 4294907904 1564024272 812346 205
-0.50199997 -0.197 6.1459999 4294907904 1564024272 829272 107
-0.48100001 -0.197 6.1430001 4294908160 1564024272 846198 115
-0.458 -0.197 6.1399999 4294908160 1564024272 762312 121
-0.43599999 -0.197 6.1389999 4294908160 1564024272 778494 128
-0.42300001 -0.197 6.1259999 4294908416 1564024272 846198 204
-0.412 -0.197 6.132 4294908416 1564024272 795234 140
-0.40000001 -0.197 6.1360002 4294908416 1564024272 829272 203
-0.38800001 -0.197 6.1329999 4294908416 1564024272 812346 150
-0.375 -0.197 6.1269999 4294908672 1564024272 812346 201
-0.36300001 -0.197 6.1360002 4294908416 1564024272 829272 156
-0.34999999 -0.197 6.132 4294908416 1564024272 795234 201
-0.33700001 -0.197 6.1290002 4294908672 1564024272 846198 169
-0.324 -0.197 6.1279998 4294908672 1564024272 778494 200
-0.30899999 -0.197 6.1279998 4294908672 1564024272 762312 176
-0.29699999 -0.197 6.132 4294908672 1564024272 762312 196
-0.28299999 -0.197 6.125 4294908672 1564024272 778494 187
-0.26899999 -0.19599999 6.1230001 4294908672 1564024272 846198 191
-0.25600001 -0.19599999 6.1209998 4294908672 1564024272 795234 190
-0.227 -0.19599999 6.125 4294908672 1564024272 812346 200
-0.199 -0.19599999 6.1209998 4294908928 1564024272 829272 203
-0.17 -0.19499999 6.1079998 4294909184 1564024272 846198 203
-0.14 -0.19499999 6.1160002 4294908928 1564024272 762312 204
-0.111 -0.19400001 6.1079998 4294909184 1564024272 778494 204
-0.081 -0.19400001 6.1040001 4294909184 1564024272 795234 206
-0.061000001 -0.19400001 6.1100001 4294909184 1564024272 812346 125
-0.029999999 -0.193 6.1040001 4294909184 1564024272 795234 207
0 -0.193 6.1040001 4294909184 1564024272 778494 207
0.029999999 -0.192 6.1040001 4294909184 1564024272 762312 210
0.035999998 -0.192 6.099 4294909440 1564024272 762312 210
0.068000004 -0.19 6.0619998 4294910208 1564024272 778494 211
0.07 -0.132 4.3200002 4294946560 1564024272 795048 213
0.090999998 -0.13 4.2740002 4294947584 1564024272 812160 213
0.115 -0.132 4.3330002 4294946304 1564024272 795048 211
0.19599999 -0.18700001 6.066 4294909952 1564024272 778494 211
0.22400001 -0.185 6.0430002 4294910464 1564024272 762312 211
0.18099999 -0.131 4.3520002 4294946048 1564024272 778494 208
0.18700001 -0.13 4.3330002 4294946304 1564024272 846012 209
0.29300001 -0.18099999 5.9850001 4294911744 1564024272 829272 209
0.32699999 -0.182 6.053 4294910208 1564024272 812160 207
0.34299999 -0.18099999 6.0240002 4294910720 1564024272 829272 159
0.38999999 -0.18799999 6.2839999 4294905344 1564024272 846012 62
0.294 -0.124 4.2589998 4294947840 1564024272 762312 168
0.29800001 -0.123 4.243 4294948096 1564024272 778308 162
0.39300001 -0.118 4.223 4294948352 1564024272 762126 190
0.39899999 -0.119 4.2480001 4294947840 1564024272 778308 182
0.41800001 -0.118 4.256 4294947584 1564024272 762126 168
0.43000001 -0.118 4.2550001 4294947584 1564024272 794862 161
0.48699999 -0.119 4.3590002 4294945280 1564024272 794862 215
0.71200001 -0.16500001 6.0110002 4294910464 1564024272 845826 213
0.73799998 -0.164 6.0359998 4294909952 1564024272 762126 216
0.75599998 -0.163 6.0339999 4294909952 1564024272 845826 213
0.77600002 -0.162 6.027 4294909952 1564024272 829086 212
0.79500002 -0.161 6.0180001 4294910208 1564024272 811974 211
0.81400001 -0.16 6.0250001 4294909952 1564024272 828900 211
0.81599998 -0.16 6.0300002 4294909696 1564024272 794862 212
0.833 -0.15899999 6.0229998 4294909952 1564024272 778122 211
0.85000002 -0.15800001 6.033 4294909696 1564024272 761940 211
0.85900003 -0.15700001 6.0190001 4294909952 1564024272 778122 209
0.87300003 -0.156 6.0170002 4294909952 1564024272 794676 210
0.88499999 -0.155 6.0139999 4294909952 1564024272 811788 208
0.89200002 -0.155 6.0289998 4294909696 1564024272 811788 208
0.903 -0.155 6.0279999 4294909696 1564024272 794676 208
0.912 -0.154 6.0240002 4294909696 1564024272 778122 208
0.91900003 -0.154 6.0279999 4294909696 1564024272 761940 207
0.92799997 -0.153 6.0219998 4294909696 1564024272 794676 206
0.93300003 -0.153 6.0240002 4294909696 1564024272 811788 206
0.935 -0.153 6.0209999 4294909696 1564024272 828900 206
0.93599999 -0.152 6.0159998 4294909696 1564024272 845640 205
-0.67799997 -0.197 6.1609998 4294907392 1564024272 778494 204
-0.67500001 -0.197 6.1560001 4294907392 1564024272 795234 204
-0.67000002 -0.197 6.1479998 4294907648 1564024272 812346 205
-0.66600001 -0.197 6.1570001 4294907392 1564024272 829272 205
-0.662 -0.197 6.1469998 4294907648 1564024272 795234 204
-0.65899998 -0.197 6.152 4294907648 1564024272 846198 205
-0.65499997 -0.197 6.1479998 4294907648 1564024272 778494 204
-0.64999998 -0.197 6.1459999 4294907648 1564024272 762312 205
-0.64600003 -0.197 6.151 4294907648 1564024272 762312 205
-0.63499999 -0.197 6.1469998 4294907648 1564024272 846198 206
-0.625 -0.197 6.1459999 4294907648 1564024272 829272 205
-0.61299998 -0.198 6.152 4294907648 1564024272 812346 206
-0.59799999 -0.198 6.1440001 4294907904 1564024272 795234 206
-0.583 -0.198 6.1500001 4294907648 1564024272 778494 205
-0.56599998 -0.198 6.1399999 4294907904 1564024272 762312 206
-0.54900002 -0.198 6.1440001 4294907904 1564024272 846198 206
-0.53100002 -0.198 6.1409998 4294907904 1564024272 829272 205
-0.51200002 -0.198 6.1469998 4294907904 1564024272 812346 205
-0.49000001 -0.198 6.131 4294908416 1564024272 795234 205
